# .PCD v0.7 - Point Cloud Data file format
VERSION 0.7
FIELDS x y z rgb
SIZE 4 4 4 4
TYPE F F F F
COUNT 1 1 1 1
WIDTH 1079
HEIGHT 1
VIEWPOINT 0 0 0 1 0 0 0
POINTS 1079
DATA ascii
-1380.3988 1226.2877 0 7.0529664e-39
-1603.6537 1277.6677 35.790504 7.0529664e-39
-1610.2683 1327.7856 36.43066 7.0529664e-39
-1467.0707 1335.2588 0 7.0529664e-39
-1428.1368 1332.5554 0 7.0529664e-39
-1621.2965 1381.2113 37.177101 7.0529664e-39
-1617.7141 1364.9846 36.946751 7.0529664e-39
-1480.2144 1356.8442 0 7.0529664e-39
-1599.3593 1407.5908 37.189617 7.0529664e-39
-1551.9108 1428.1227 36.813831 7.0529664e-39
-1511.9078 1436.3383 9.1581497 7.0529664e-39
-1477.4435 1432.9385 0 7.0529664e-39
-1506.4829 1455.2397 29.703987 7.0529664e-39
-1469.7767 1444.0962 0 7.0529664e-39
-1516.7799 1509.5621 21.384174 7.0529664e-39
-1538.4648 1556.2498 19.116924 7.0529664e-39
-1529.8285 1535.7139 37.8368 7.0529664e-39
-1558.9819 1600.5052 17.378723 7.0529664e-39
-1581.822 1651.2543 19.939367 7.0529664e-39
-1572.4097 1631.411 19.7474 7.0529664e-39
-319.7756 1654.7927 29.418934 7.0529664e-39
-313.10889 1652.3394 29.3549 7.0529664e-39
-1598.2659 1688.9785 20.30805 7.0529664e-39
-686.5119 1699.2709 31.990271 7.0529664e-39
-671.67065 1702.5177 31.94665 7.0529664e-39
-332.28845 1675.0996 29.80875 7.0529664e-39
-312.8067 1666.6409 29.5993 7.0529664e-39
-1623.4814 1747.8939 13.880466 7.0529664e-39
-1613.585 1725.1797 24.761459 7.0529664e-39
-1637.4653 1778.3634 18.045773 7.0529664e-39
-1666.3319 1843.5192 0 7.0529664e-39
-1656.406 1819.3281 28.656851 7.0529664e-39
-778.08752 1834.3765 22.339094 7.0529664e-39
-369.07111 1837.0065 32.705799 7.0529664e-39
-1678.1467 1869.457 21.911488 7.0529664e-39
-770.58643 1846.6711 0 7.0529664e-39
-762.42053 1847.0243 34.878651 7.0529664e-39
-1697.3965 1914.9854 22.376884 7.0529664e-39
-1720.78 1967.7166 0 7.0529664e-39
-1706.5081 1936.3345 0 7.0529664e-39
-853.42603 1972.6389 18.717699 7.0529664e-39
-1738.2953 2004.1771 0 7.0529664e-39
-1759.7852 2051.0137 0 7.0529664e-39
-1750.4034 2030.7263 0 7.0529664e-39
-1778.4209 2089.6738 0 7.0529664e-39
-946.79993 2112.1458 40.402302 7.0529664e-39
-1805.1622 2148.261 0 7.0529664e-39
-1795.1914 2126.5874 0 7.0529664e-39
-947.49304 2128.103 0 7.0529664e-39
-934.11829 2126.4263 18.410692 7.0529664e-39
-1817.3657 2177.1689 0 7.0529664e-39
-1835.6597 2216.5811 0 7.0529664e-39
-1862.8656 2274.9241 0 7.0529664e-39
-1881.3242 2316.2188 0 7.0529664e-39
-1901.3438 2360.0457 0 7.0529664e-39
-1918.6584 2396.5913 0 7.0529664e-39
-1948.0562 2461.3799 0 7.0529664e-39
-1934.153 2431.5635 0 7.0529664e-39
-1964.6406 2497.9722 0 7.0529664e-39
-1988.0394 2548.2393 0 7.0529664e-39
-1979.0963 2528.5764 0 7.0529664e-39
-2002.6486 2579.9514 0 7.0529664e-39
-2030.0813 2640.8943 0 7.0529664e-39
-2051.8201 2686.5981 0 7.0529664e-39
-2078.6367 2743.4709 0 7.0529664e-39
-2067.3401 2720.6606 0 7.0529664e-39
-2092.1411 2775.8809 0 7.0529664e-39
-2107.3145 2810.7642 0 7.0529664e-39
-2131.1313 2859.1318 0 7.0529664e-39
-2145.0239 2893.0376 0 7.0529664e-39
-2168.5835 2944.6372 0 7.0529664e-39
-2193.2734 2997.8418 0 7.0529664e-39
-2212.0796 3037.9709 0 7.0529664e-39
-2223.8032 3065.3005 0 7.0529664e-39
-2256.4014 3135.5088 0 7.0529664e-39
-2303.1794 3237.2971 0 7.0529664e-39
-2290.8528 3210.4717 0 7.0529664e-39
-2588.4473 4986.1655 0 7.0529664e-39
-2573.2527 4996.2734 0 7.0529664e-39
-2543.0559 4999.6372 0 7.0529664e-39
-2495.9692 5018.5586 0 7.0529664e-39
-2465.6404 5037.4473 0 7.0529664e-39
-2661.9233 5040.2544 0 7.0529664e-39
-2641.4355 5050.4556 0 7.0529664e-39
-2447.7971 5052.2554 0 7.0529664e-39
-4972.2119 10795.469 0 7.0529664e-39
-4945.1948 10806.226 0 7.0529664e-39
-6160.2217 11575.942 0 7.0529664e-39
894.75897 -4417.6104 78.6754 7.0529664e-39
578.10406 -4379.334 77.104706 7.0529664e-39
594.38989 -4369.4155 76.970932 7.0529664e-39
689.22247 -4371.3232 77.244354 7.0529664e-39
742.31628 -4365.665 77.2967 7.0529664e-39
805.55573 -4367.6577 77.523598 7.0529664e-39
834.51434 -4377.0625 77.778381 7.0529664e-39
872.65466 -4399.0898 78.282799 7.0529664e-39
620.74823 -4358.0049 76.837097 7.0529664e-39
647.26703 -4348.6118 76.741722 7.0529664e-39
750.33142 -4363.603 77.285103 7.0529664e-39
783.28387 -4363.7725 77.387474 7.0529664e-39
-228.7661 -3381.7549 59.1637 7.0529664e-39
-265.3378 -3297.8391 57.75 7.0529664e-39
491.48041 -3068.4148 54.2421 7.0529664e-39
504.13013 -3070.1572 54.307499 7.0529664e-39
293.27509 -2656.4529 46.650299 7.0529664e-39
343.93521 -2655.4111 46.737499 7.0529664e-39
304.80136 -2644.8833 46.472282 7.0529664e-39
328.41119 -2644.0652 46.507183 7.0529664e-39
1186.4843 -2450.8584 47.529903 7.0529664e-39
-2416.0583 -1681.3997 51.379848 7.0529664e-39
-191.18085 -1492.7367 78.8703 7.0529664e-39
-2184.2893 -1449.7025 45.760239 7.0529664e-39
-2208.3367 -1406.1095 45.69738 7.0529664e-39
-2196.5571 -1428.281 45.734066 7.0529664e-39
-2552.4258 -1353.4194 50.428749 7.0529664e-39
-2217.4651 -1378.494 45.575699 7.0529664e-39
-522.65179 -1365.3782 76.619843 7.0529664e-39
-2580.2478 -1327.0898 50.646881 7.0529664e-39
-2544.7114 -1348.7742 50.271652 7.0529664e-39
-520.78772 -1324.9301 74.608665 7.0529664e-39
1070.3757 -1321.9998 89.145569 7.0529664e-39
-2599.9641 -1282.7922 50.606144 7.0529664e-39
-2393.2554 -1283.2504 47.4007 7.0529664e-39
-529.23944 -1280.8853 72.634254 7.0529664e-39
669.13025 -1273.9919 75.416107 7.0529664e-39
1052.2688 -1282.2192 86.930023 7.0529664e-39
-2621.6108 -1228.9734 50.539268 7.0529664e-39
-2605.5435 -1247.5337 50.424374 7.0529664e-39
-557.29053 -1233.5266 70.941376 7.0529664e-39
-539.44373 -1256.1956 71.647949 7.0529664e-39
667.97852 -1254.8308 74.500244 7.0529664e-39
687.52277 -1242.3184 74.414238 7.0529664e-39
-2639.7148 -1195.0885 50.57901 7.0529664e-39
-642.36896 -1179.7721 70.401375 7.0529664e-39
-606.59747 -1194.5198 70.215836 7.0529664e-39
-579.21436 -1211.8463 70.391884 7.0529664e-39
-2662.7351 -1147.032 50.607613 7.0529664e-39
-2651.5571 -1168.3691 50.577099 7.0529664e-39
960.67041 -1140.5249 78.151871 7.0529664e-39
-2661.2065 -1118.1246 50.385101 7.0529664e-39
953.9281 -1102.9496 76.423553 7.0529664e-39
932.41138 -1057.5774 73.890907 7.0529664e-39
909.78925 -1007.6945 71.150749 7.0529664e-39
889.34027 -963.21448 68.706642 7.0529664e-39
900.1347 -986.11877 69.973198 7.0529664e-39
-2766.2659 -919.612 50.884243 7.0529664e-39
870.55548 -923.65002 66.51902 7.0529664e-39
-2792.3354 -861.52637 51.007568 7.0529664e-39
-2783.2126 -881.72205 50.961021 7.0529664e-39
-504.44052 -860.84271 87.295197 7.0529664e-39
-481.19611 -857.9035 86.057579 7.0529664e-39
846.02313 -872.90112 63.707817 7.0529664e-39
856.83539 -895.37469 64.948898 7.0529664e-39
-2805.8704 -830.21545 51.076221 7.0529664e-39
-504.58115 -843.05695 85.961723 7.0529664e-39
-489.87106 -851.82269 85.970421 7.0529664e-39
825.86127 -828.36859 61.302849 7.0529664e-39
-2837.1423 -772.96179 51.327499 7.0529664e-39
-2825.448 -787.07672 51.196667 7.0529664e-39
804.6485 -779.72058 58.720932 7.0529664e-39
812.70227 -798.64221 59.715347 7.0529664e-39
-2845.1414 -754.72058 51.379868 7.0529664e-39
-2812.0205 -728.64246 50.70507 7.0529664e-39
426.75449 -744.27551 69.020744 7.0529664e-39
785.07959 -739.48383 56.522827 7.0529664e-39
-2869.0962 -683.10651 51.480247 7.0529664e-39
-2814.8191 -700.43201 50.631603 7.0529664e-39
431.05981 -703.34985 72.179993 7.0529664e-39
453.16983 -692.30566 72.391563 7.0529664e-39
760.60327 -684.50031 69.535797 7.0529664e-39
770.53754 -707.62024 54.827145 7.0529664e-39
-2868.9099 -647.55383 51.337227 7.0529664e-39
745.83051 -652.06091 68.558228 7.0529664e-39
-2894.0039 -603.58417 51.602402 7.0529664e-39
-2878.2632 -616.52069 51.379902 7.0529664e-39
-413.32642 -608.30316 64.342697 7.0529664e-39
716.62726 -592.60211 61.794502 7.0529664e-39
727.67242 -615.1413 67.771461 7.0529664e-39
-2928.5928 -552.70184 52.021275 7.0529664e-39
-2916.405 -571.84662 51.875538 7.0529664e-39
-1578.6965 -578.03479 88.107597 7.0529664e-39
-1570.5197 -553.66107 87.273102 7.0529664e-39
-448.07797 -552.23273 87.319389 7.0529664e-39
712.19641 -569.7467 64.409973 7.0529664e-39
741.97986 -555.60907 64.145615 7.0529664e-39
776.59753 -544.90637 68.376442 7.0529664e-39
-1571.2776 -537.66217 87.034698 7.0529664e-39
-445.94116 -514.78784 83.633965 7.0529664e-39
790.69147 -517.21484 66.110626 7.0529664e-39
882.95636 -496.29901 88.615578 7.0529664e-39
-635.22858 -492.7338 70.334702 7.0529664e-39
-615.86932 -488.32455 68.765869 7.0529664e-39
-510.01291 -483.84586 78.104378 7.0529664e-39
-466.30612 -485.00681 82.618057 7.0529664e-39
-423.49805 -466.69876 57.342937 7.0529664e-39
762.54486 -468.93683 58.69706 7.0529664e-39
791.47241 -484.68631 64.785347 7.0529664e-39
826.95142 -483.18878 65.460899 7.0529664e-39
890.76758 -491.77853 68.934074 7.0529664e-39
919.99329 -478.85141 58.856483 7.0529664e-39
946.61377 -467.02371 55.319099 7.0529664e-39
-429.62631 -449.26263 54.38517 7.0529664e-39
425.24744 -195.8376 67.539986 7.0529664e-39
454.33527 -221.49585 71.06295 7.0529664e-39
428.44794 -167.06073 63.949982 7.0529664e-39
463.32031 -154.16826 68.869995 7.0529664e-39
520.98871 -150.10263 66.859795 7.0529664e-39
547.33441 -138.49869 65.657333 7.0529664e-39
568.44086 -112.8188 61.036098 7.0529664e-39
587.45233 -130.82748 63.243225 7.0529664e-39
-3152.1426 -48.691597 55.027451 7.0529664e-39
-3148.2673 -60.632637 54.963436 7.0529664e-39
526.25153 -47.148952 63.492416 7.0529664e-39
579.539 -79.315788 63.912994 7.0529664e-39
587.72437 -63.221889 60.054455 7.0529664e-39
-3157.3074 -36.37027 55.1147 7.0529664e-39
-3139.6938 -11.292621 54.804077 7.0529664e-39
494.2847 -1.5743999 60.690899 7.0529664e-39
513.23761 -25.041628 66.577911 7.0529664e-39
-3195.2815 38.481899 55.777901 7.0529664e-39
-3175.9783 35.505432 55.440468 7.0529664e-39
-3143.7471 10.978351 54.874748 7.0529664e-39
448.67975 33.664009 61.411655 7.0529664e-39
475.68576 19.475471 67.436546 7.0529664e-39
-3186.0649 61.892498 55.623734 7.0529664e-39
-2737.7903 80.5896 47.80912 7.0529664e-39
441.52277 72.221672 62.156406 7.0529664e-39
454.30304 53.07835 67.831566 7.0529664e-39
-2750.7166 109.847 48.052269 7.0529664e-39
-2740.9106 95.716103 47.871948 7.0529664e-39
378.77328 125.98256 55.793045 6.9607708e-39
424.90634 108.40423 61.606907 7.0529664e-39
-3247.7004 156.9061 56.755219 7.0529664e-39
372.19495 136.662 59.669304 7.0529664e-39
-3267.1333 199.18755 57.13419 7.0529664e-39
-2796.9077 208.8448 48.956501 7.0529664e-39
-2788.967 192.0889 48.796902 7.0529664e-39
-2805.0859 230.8665 49.128502 7.0529664e-39
-993.16266 240.76544 81.453789 7.0529664e-39
-988.67865 250.42009 71.351044 7.0529664e-39
-3312.7583 298.10153 58.05835 7.0529664e-39
-2847.8425 309.03778 50.001137 7.0529664e-39
-3318.0015 332.7106 58.206692 7.0529664e-39
-2854.5984 334.35345 50.16819 7.0529664e-39
-100.3683 357.55069 58.819401 7.0529664e-39
213.02899 382.2637 69.315376 7.0529664e-39
234.89955 391.11707 72.262955 7.0529664e-39
-3379.7808 439.41312 59.490875 7.0529664e-39
-3369.1504 422.04135 59.268349 7.0529664e-39
-2935.5762 424.06241 51.772598 7.0529664e-39
-2893.8489 434.55688 51.078827 7.0529664e-39
-3393.322 471.11472 59.79892 7.0529664e-39
-2929.6968 475.56268 51.807472 7.0529664e-39
-2908.0808 455.57623 51.379898 7.0529664e-39
-2926.0913 529.12347 51.9035 7.0529664e-39
-2918.8159 518.69739 51.746399 7.0529664e-39
349.7298 527.51868 58.338768 7.0529664e-39
369.3009 529.11542 58.184536 7.0529664e-39
-3443.7622 581.23157 60.96125 7.0529664e-39
-3019.1968 580.67505 53.666168 7.0529664e-39
-2839.8936 570.05859 50.559631 7.0529664e-39
386.42413 558.76752 67.737099 7.0529664e-39
-2993.5183 622.38098 53.369453 7.0529664e-39
-340.98395 614.7041 73.526344 7.0529664e-39
-161.14827 627.93298 79.601021 7.0529664e-39
379.18103 596.70306 66.020233 7.0529664e-39
-3474.7266 648.40137 61.698624 7.0529664e-39
-3021.5244 668.19971 54.015198 7.0529664e-39
-3001.1926 643.08679 53.575378 7.0529664e-39
-1452.8834 652.18402 83.463768 7.0529664e-39
-150.56529 633.95996 80.007233 7.0529664e-39
-3035.1519 683.63586 54.306103 7.0529664e-39
-1458.9628 680.32812 84.36557 7.0529664e-39
-3069.168 791.18719 55.324127 7.0529664e-39
-1516.8633 787.61182 89.572998 7.0529664e-39
-3564.9846 841.42084 63.936901 7.0529664e-39
-3553.1521 815.08771 63.6315 7.0529664e-39
-3571.9431 857.54761 64.120102 7.0529664e-39
-3120.0908 893.49487 56.650497 7.0529664e-39
-3131.4265 922.00104 56.979622 7.0529664e-39
-3625.1755 972.74066 65.516342 7.0529664e-39
-3128.4692 949.90454 57.069351 7.0529664e-39
680.02881 973.34961 62.227501 7.0529664e-39
-3645.6943 1022.6991 66.0923 7.0529664e-39
-3637.3872 1004.9873 65.869751 7.0529664e-39
-3175.1438 1019.2796 58.208153 7.0529664e-39
-375.96326 1031.7456 57.549942 7.0529664e-39
666.52246 1005.8793 63.239269 7.0529664e-39
-408.45999 1068.2515 59.937775 7.0529664e-39
-400.59229 1067.0497 59.732769 7.0529664e-39
-3704.4446 1147.1609 67.690903 7.0529664e-39
-3717.4314 1170.675 68.029503 7.0529664e-39
-465.49515 1200.1182 67.460999 7.0529664e-39
-3743.4016 1230.9319 68.78344 7.0529664e-39
-3784.1069 1303.7113 69.862 7.0529664e-39
-3766.8113 1278.2402 69.432663 7.0529664e-39
-3786.574 1314.9261 69.966705 7.0529664e-39
-3809.9436 1376.9369 70.712799 7.0529664e-39
-3828.6089 1418.7812 71.269798 7.0529664e-39
-3816.8367 1396.7639 70.944 7.0529664e-39
-1717.451 1957.2522 45.451866 7.0529664e-39
-1736.3103 1997.4211 46.196533 7.0529664e-39
-1760.8242 2051.9937 47.197105 7.0529664e-39
-1781.1345 2095.5688 48.005733 7.0529664e-39
-1805.9009 2148.3872 48.988899 7.0529664e-39
-1794.6481 2125.1836 48.552601 7.0529664e-39
-1826.2712 2193.917 49.826599 7.0529664e-39
-1840.8429 2225.9985 50.419998 7.0529664e-39
-1859.5448 2266.2932 51.170467 7.0529664e-39
-1878.842 2308.6306 51.955803 7.0529664e-39
-1900.4611 2357.3843 52.854649 7.0529664e-39
-1922.991 2404.9011 53.747601 7.0529664e-39
-1943.8142 2450.7371 54.59985 7.0529664e-39
-1961.8801 2489.9856 55.332901 7.0529664e-39
-1988.4825 2547.9023 56.414951 7.0529664e-39
-2006.5859 2588.2886 57.165398 7.0529664e-39
-2032.6793 2643.3032 58.2038 7.0529664e-39
-2024.156 2624.6277 57.854698 7.0529664e-39
-2047.9363 2675.7034 58.814598 7.0529664e-39
-2065.0266 2711.7166 59.4953 7.0529664e-39
-2089.968 2767.4634 60.533699 7.0529664e-39
-2109.1646 2811.2056 61.3452 7.0529664e-39
-2130.501 2858.2998 62.226601 7.0529664e-39
-2161.426 2923.1331 63.456902 7.0529664e-39
-2150.0205 2899.2314 63.003201 7.0529664e-39
-2172.3333 2948.6355 63.9282 7.0529664e-39
-2194.8796 2997.8247 64.853104 7.0529664e-39
-2212.8564 3037.9331 65.6036 7.0529664e-39
-2236.5271 3086.2378 66.528603 7.0529664e-39
-2258.1875 3131.6482 67.392502 7.0529664e-39
-2272.0869 3166.6064 68.029503 7.0529664e-39
-2304.4917 3233.165 69.303497 7.0529664e-39
-2293.2605 3205.5557 68.797401 7.0529664e-39
-2346.3025 3324.8638 71.031303 7.0529664e-39
-2334.1892 3296.6936 70.507698 7.0529664e-39
-2366.3977 3363.2986 71.7817 7.0529664e-39
-2388.4441 3418.6658 72.793999 7.0529664e-39
-2374.8721 3387.8918 72.218102 7.0529664e-39
307.56213 -7368.959 128.73764 7.0529664e-39
341.5484 -7365.46 128.70276 7.0529664e-39
376.7674 -7361.2305 128.65913 7.0529664e-39
417.39105 -7358.043 128.64166 7.0529664e-39
-457.42029 -2345.1929 125.2225 7.0529664e-39
-438.71564 -2344.689 125.01318 7.0529664e-39
-275.96429 -2254.0532 119.012 7.0529664e-39
-229.70341 -2256.2231 118.85497 7.0529664e-39
1132.6816 -2276.8218 133.2735 7.0529664e-39
-253.23671 -2243.0784 118.30253 7.0529664e-39
-62.078568 -2166.6685 113.59812 7.0529664e-39
-42.912998 -2175.5906 114.04 7.0529664e-39
1345.1218 -1980.03 125.4493 7.0529664e-39
1341.9579 -1964.6638 124.6904 7.0529664e-39
1317.4021 -1904.8907 121.38017 7.0529664e-39
1296.2605 -1845.0767 118.1746 7.0529664e-39
1309.5155 -1872.9795 119.77084 7.0529664e-39
910.78033 -1805.7881 105.9934 7.0529664e-39
1293.7238 -1834.6501 117.6512 7.0529664e-39
921.16248 -1788.8123 105.44823 7.0529664e-39
1247.0009 -1762.5067 113.1503 7.0529664e-39
1232.874 -1727.6205 111.23137 7.0529664e-39
1210.9521 -1677.8 108.44012 7.0529664e-39
1210.2438 -1650.6311 107.26778 7.0529664e-39
1223.1211 -1650.7557 107.67254 7.0529664e-39
1198.6874 -1596.724 104.63704 7.0529664e-39
1182.5498 -1562.2017 102.68315 7.0529664e-39
-188.53482 -1495.8994 131.91022 7.0529664e-39
1157.0085 -1508.8425 99.647652 7.0529664e-39
-2083.3438 -1453.9056 133.14267 7.0529664e-39
1134.6107 -1460.5332 96.926178 7.0529664e-39
-2120.4541 -1399.244 133.1427 7.0529664e-39
-2114.384 -1404.7935 133.03799 7.0529664e-39
1112.53 -1413.1455 94.257072 7.0529664e-39
-2130.6309 -1375.6031 132.91431 7.0529664e-39
-521.80475 -1366.1509 127.94466 7.0529664e-39
1093.5452 -1371.4921 91.928101 7.0529664e-39
-2161.0098 -1311.8536 132.48845 7.0529664e-39
-2151.1804 -1329.5159 132.53427 7.0529664e-39
-1962.6392 -1331.9752 124.30952 7.0529664e-39
-520.53162 -1328.4495 124.82882 7.0529664e-39
1080.4271 -1344.2607 90.384201 7.0529664e-39
-2173.3313 -1280.4835 132.20064 7.0529664e-39
-530.66876 -1280.5707 121.27724 7.0529664e-39
666.20502 -1261.4349 124.807 7.0529664e-39
-2187.3923 -1249.0173 132.0087 7.0529664e-39
-792.98785 -1224.001 127.59602 7.0529664e-39
-557.89227 -1235.5803 118.61501 7.0529664e-39
670.45117 -1255.115 124.49328 7.0529664e-39
688.74408 -1242.6696 124.30421 7.0529664e-39
-772.0437 -1209.0449 125.50426 7.0529664e-39
-744.65118 -1192.9454 123.03486 7.0529664e-39
-642.71454 -1183.0272 117.79099 7.0529664e-39
-607.53168 -1196.7795 117.43046 7.0529664e-39
-581.72546 -1211.9844 117.6167 7.0529664e-39
992.62579 -1160.5739 133.6098 7.0529664e-39
970.01508 -1109.5212 128.93967 7.0529664e-39
916.82794 -1018.2182 119.874 7.0529664e-39
889.67413 -965.60144 114.87126 7.0529664e-39
867.24139 -916.26135 110.37651 7.0529664e-39
-484.04956 -859.21381 121.08936 7.0529664e-39
846.13593 -869.10028 106.12081 7.0529664e-39
857.52673 -893.28589 108.3346 7.0529664e-39
-502.73584 -840.37048 120.24074 7.0529664e-39
-487.24768 -849.14569 120.20889 7.0529664e-39
826.92548 -829.52753 102.4758 7.0529664e-39
-2016.5898 -765.62793 113.0457 7.0529664e-39
803.35583 -774.83807 97.6493 7.0529664e-39
814.89783 -799.90369 99.902283 7.0529664e-39
-2017.5145 -758.46619 112.95848 7.0529664e-39
426.77731 -740.30164 115.0237 7.0529664e-39
785.46527 -740.55554 112.3263 7.0529664e-39
430.92859 -701.35156 115.49884 7.0529664e-39
453.49496 -689.854 117.407 7.0529664e-39
755.95581 -679.36072 124.7942 7.0529664e-39
771.01312 -707.03162 98.961678 7.0529664e-39
747.74817 -657.19434 122.23495 7.0529664e-39
716.83289 -592.12805 114.1611 7.0529664e-39
725.01733 -610.36688 116.36781 7.0529664e-39
711.54401 -568.75653 111.84994 7.0529664e-39
741.39624 -554.41656 113.67761 7.0529664e-39
751.33643 -521.98242 112.33488 7.0529664e-39
781.27338 -506.17194 114.30735 7.0529664e-39
878.81421 -496.60107 123.94115 7.0529664e-39
-555.1922 -492.34409 91.11396 7.0529664e-39
761.78992 -466.04733 109.65192 7.0529664e-39
784.39435 -483.28174 113.12522 7.0529664e-39
824.92914 -482.73126 117.36018 7.0529664e-39
890.14807 -491.21713 124.83484 7.0529664e-39
923.98273 -477.05292 110.64599 7.052965e-39
946.58606 -467.01056 110.9661 7.0529664e-39
553.4375 -135.97034 90.262695 7.0529664e-39
568.40979 -112.24297 91.791466 7.0529664e-39
588.4458 -130.85037 95.477173 7.0529664e-39
581.15997 -82.871201 92.980728 7.0529664e-39
588.42957 -65.526825 93.778336 7.0529664e-39
-991.33551 239.41809 125.22075 7.0529664e-39
-986.82019 249.89236 124.99362 7.0529664e-39
339.08163 510.21381 97.028442 7.0529664e-39
-340.91763 615.10986 111.39053 7.0529664e-39
-187.06902 619.4585 102.49063 7.0529664e-39
-171.45848 625.44025 102.71876 7.0529664e-39
-198.5854 630.216 104.6547 7.0529664e-39
-162.9621 634.23602 103.7161 7.0529664e-39
-1739.2196 982.71838 104.69283 7.0529664e-39
-1773.8865 1022.9163 107.31485 7.0529664e-39
-371.755 1032.223 134.71133 7.0529664e-39
-412.00201 1077.327 100.91183 7.0529664e-39
-362.71637 1036.6265 134.84845 7.0529664e-39
-2256.1582 1109.5096 131.76448 7.0529664e-39
-2232.2178 1119.1663 130.86606 7.0529664e-39
-2194.958 1119.8323 129.13901 7.0529664e-39
-406.36679 1082.8427 101.1878 7.0529664e-39
-2179.4563 1140.6124 128.91843 7.0529664e-39
-2144.9351 1161.3105 127.83059 7.0529664e-39
-2117.6846 1172.6423 126.86235 7.0529664e-39
-2098.96 1181.5214 126.23434 7.0529664e-39
-2046.4735 1205.1023 124.46654 7.0529664e-39
-2021.8545 1214.8527 123.6175 7.0529664e-39
-1914.0034 1210.918 118.6979 7.0529664e-39
-1998.5848 1226.9408 122.90575 7.0529664e-39
-1970.4425 1237.4902 121.94275 7.0529664e-39
-1902.5281 1228.8417 118.69794 7.0529664e-39
-1906.7711 1269.7113 120.0587 7.0529664e-39
-1866.3085 1287.4736 118.82641 7.0529664e-39
-1834.4403 1300.9357 117.86057 7.0529664e-39
-1816.095 1310.134 117.35963 7.0529664e-39
-1778.439 1326.4832 116.27623 7.0529664e-39
-1742.4928 1342.5049 115.28116 7.0529664e-39
-1718.1781 1353.7178 114.63666 7.0529664e-39
-1685.0839 1367.759 113.74346 7.0529664e-39
-1645.2454 1386.7091 112.76653 7.0529664e-39
-1623.3469 1396.791 112.23445 7.0529664e-39
-1597.8619 1400.1311 111.34183 7.0529664e-39
-1548.1459 1417.5787 110.01345 7.0529664e-39
-1523.4928 1439.6885 109.8532 7.0529664e-39
-1503.9171 1454.5413 109.65189 7.0529664e-39
-1507.6433 1500.844 111.48865 7.0529664e-39
-1536.0164 1560.5334 114.7553 7.0529664e-39
-1525.8011 1538.105 113.54285 7.0529664e-39
-1550.7554 1593.0337 116.51292 7.0529664e-39
-1578.8373 1658.5283 120.00635 7.0529664e-39
-1568.5164 1634.3168 118.71536 7.0529664e-39
-1592.3772 1688.3422 121.62878 7.0529664e-39
-683.85492 1699.5559 96.0103 7.0529664e-39
-670.25671 1703.0002 95.914368 7.0529664e-39
-1611.9453 1733.866 124.07114 7.0529664e-39
-1630.5551 1776.1259 126.35992 7.0529664e-39
-775.22949 1798.3345 102.6308 7.0529664e-39
-1651.5093 1822.0315 128.8773 7.0529664e-39
-768.97937 1819.4534 103.52054 7.0529664e-39
-762.5127 1840.5682 104.41024 7.0529664e-39
-1673.9998 1870.0951 131.5377 7.0529664e-39
-1662.8376 1846.1202 130.2119 7.0529664e-39
-755.55878 1847.7518 104.6196 7.0529664e-39
-333.98517 1846.9692 98.365402 7.0529664e-39
-1690.573 1910.0435 133.67911 7.0529664e-39
-906.60468 2094.0371 119.5877 7.0529664e-39
-1044.2279 2278.6899 131.3633 7.0529664e-39
-1010.776 2267.0356 130.08629 7.0529664e-39
-988.73822 2275.0278 130.0025 7.0529664e-39
-426.63889 2434.5015 129.53149 7.0529664e-39
-2256.3662 4758.3242 91.921799 7.0529664e-39
-2244.7417 4764.9229 91.939255 7.0529664e-39
-2230.793 4782.5015 92.11377 7.0529664e-39
2585.6411 -8517.4805 155.37297 7.0529664e-39
2641.1824 -8516.4932 155.64059 7.0529664e-39
2665.7251 -8532.4121 156.03325 7.0529664e-39
2621.3079 -8504.8467 155.3439 7.0529664e-39
2274.7756 -7907.0249 143.61584 7.0529664e-39
2315.3345 -7887.1665 143.48061 7.0529664e-39
2346.3406 -7875.6631 143.4413 7.0529664e-39
2359.2827 -7873.8833 143.4762 7.0529664e-39
484.7486 -3075.957 163.19398 7.0529664e-39
516.59406 -3062.5979 162.77231 7.0529664e-39
290.9285 -2656.4492 140.05099 7.0529664e-39
304.02988 -2643.9131 139.47533 7.0529664e-39
329.6228 -2642.5237 139.56255 7.0529664e-39
1201.5743 -2460.2827 143.49474 7.0529664e-39
914.94348 -1807.3682 177.2312 7.0529664e-39
925.23792 -1789.0801 176.21802 7.0529664e-39
1211.6945 -1632.7383 177.8849 7.0529664e-39
1220.9767 -1650.6577 179.62801 7.0529664e-39
1193.9219 -1595.0396 174.31151 7.0529664e-39
1167.5227 -1537.597 168.90781 7.0529664e-39
1176.6689 -1557.5371 170.78171 7.0529664e-39
1155.9124 -1512.627 166.5546 7.0529664e-39
-2314.2832 -1455.1284 143.26965 7.0529664e-39
1131.9391 -1458.4067 161.51704 7.0529664e-39
-2534.4414 -1410.8484 152.01852 7.0529664e-39
-2494.2974 -1420.3884 150.43097 7.0529664e-39
-2337.1047 -1403.7191 142.8772 7.0529664e-39
1117.3895 -1413.2437 157.62117 7.0529664e-39
1126.3588 -1435.9824 159.6693 7.0529664e-39
-2551.6626 -1373.5903 151.8737 7.0529664e-39
-2345.2615 -1388.0889 142.8248 7.0529664e-39
1097.1055 -1367.6346 153.39413 7.0529664e-39
-2575.0608 -1327.0044 151.8208 7.0529664e-39
-2564.0967 -1337.6295 151.5649 7.0529664e-39
-588.92871 -1321.4534 177.6398 7.0529664e-39
1072.7734 -1315.9937 148.54245 7.0529664e-39
1085.9514 -1342.7225 151.0845 7.0529664e-39
-2594.1072 -1281.5267 151.6382 7.0529664e-39
-609.13403 -1278.8605 173.93657 7.0529664e-39
661.61493 -1260.1906 174.7606 7.0529664e-39
1054.8333 -1276.4789 144.87462 7.0529664e-39
-2617.498 -1234.8131 151.67708 7.0529664e-39
-2606.8982 -1249.8582 151.5126 7.0529664e-39
-684.39178 -1244.7928 174.4194 7.0529664e-39
-652.57715 -1249.5796 173.09937 7.0529664e-39
-628.87158 -1259.1191 172.8107 7.0529664e-39
667.18829 -1253.3069 174.33411 7.0529664e-39
689.78284 -1239.5768 174.18379 7.0529664e-39
1029.671 -1223.2068 139.88499 7.0529664e-39
1040.161 -1243.446 141.83144 7.0529664e-39
-2635.8008 -1192.2194 151.61252 7.0529664e-39
1019.4482 -1202.2797 137.90942 7.0529664e-39
-2662.271 -1139.8109 151.77426 7.0529664e-39
-2652.3906 -1165.1472 151.8266 7.0529664e-39
898.30518 -1125.6904 176.8324 7.0529664e-39
903.2099 -1140.8074 178.66046 7.0529664e-39
-2669.3174 -1112.0383 151.54747 7.0529664e-39
-2638.0088 -1085.4246 149.49765 7.0529664e-39
894.99121 -1098.627 173.99287 7.0529664e-39
900.72711 -1093.058 173.90759 7.0529664e-39
-2702.627 -1047.0155 151.89641 7.0529664e-39
-2678.0151 -1048.7542 150.72757 7.0529664e-39
-2647.0168 -1065.7019 149.54626 7.0529664e-39
884.22528 -1055.792 169.09372 7.0529664e-39
-2726.5708 -1005.3444 152.29761 7.0529664e-39
854.09747 -990.87909 160.62379 7.0529664e-39
865.05634 -1014.8148 163.73148 7.0529664e-39
841.55597 -963.91229 157.11395 7.0529664e-39
-2759.8767 -921.75793 152.49388 7.0529664e-39
822.67163 -923.38873 151.8492 7.0529664e-39
-2792.1628 -857.91467 153.0827 7.0529664e-39
-2778.1267 -881.92017 152.75705 7.0529664e-39
809.505 -887.15674 147.46191 7.0529664e-39
823.72675 -869.2829 147.05363 7.0529664e-39
856.09058 -856.38953 148.6806 7.0529664e-39
-2802.6064 -831.64288 153.21063 7.0529664e-39
-2787.571 -842.14819 152.6116 7.0529664e-39
-498.54712 -844.2287 155.28728 7.0529664e-39
-492.28391 -845.76172 154.9953 7.0529664e-39
775.33307 -818.18896 178.53082 7.0529664e-39
835.0766 -847.29865 146.07262 7.0529664e-39
864.66998 -844.21844 148.38269 7.0529664e-39
-2836.5278 -765.35388 153.9724 7.0529664e-39
-2821.4353 -787.93146 153.52461 7.0529664e-39
756.26483 -777.00055 171.73376 7.0529664e-39
787.45984 -796.72278 157.30923 7.0529664e-39
-2842.7847 -750.91064 154.09451 7.0529664e-39
-2824.0415 -742.328 153.03038 7.0529664e-39
428.68225 -744.15051 136.01974 7.0529664e-39
740.36713 -743.01788 166.13339 7.0529664e-39
-2860.5681 -680.06659 154.09451 7.0529664e-39
-2813.4504 -701.34454 151.96034 7.0529664e-39
714.98041 -688.78943 157.24271 7.0529664e-39
726.64294 -713.39697 161.28394 7.0529664e-39
-2889.6963 -642.47614 155.14124 7.0529664e-39
-2876.2888 -667.35339 154.74435 7.0529664e-39
697.896 -652.12885 151.28517 7.0529664e-39
-2905.3909 -606.42474 155.54829 7.0529664e-39
703.81531 -613.33661 147.87872 7.0529664e-39
722.08362 -602.76868 148.97777 7.0529664e-39
-2932.5264 -552.64355 156.39291 7.0529664e-39
-2918.9751 -570.98676 155.87741 7.0529664e-39
712.65283 -568.96924 144.43716 7.0529664e-39
742.13739 -554.8949 146.77632 7.0529664e-39
770.29706 -545.21259 149.47313 7.0529664e-39
-2947.8787 -515.49878 156.83777 7.0529664e-39
762.38678 -532.44336 147.28305 7.0529664e-39
787.05762 -518.21191 149.26974 7.0529664e-39
881.14221 -495.48434 160.11066 7.0529664e-39
-2974.9722 -459.12732 157.75804 7.0529664e-39
763.94305 -465.03311 141.6514 7.0529664e-39
789.13336 -477.39117 146.08134 7.0529664e-39
832.19482 -479.38474 152.11295 7.0529664e-39
888.86591 -492.00491 160.9124 7.0529664e-39
921.60211 -478.55914 164.48373 7.0529664e-39
946.95264 -466.98361 167.22845 7.0529664e-39
-2988.4348 -426.47852 158.20578 7.0529664e-39
763.48853 -448.47394 140.2435 7.0529664e-39
-2998.6335 -382.63986 158.42751 7.0529664e-39
-3037.4678 -315.49921 160.0434 7.0529664e-39
-2983.1292 -335.68872 157.32771 7.0529664e-39
-3050.9294 -292.20215 160.6256 7.0529664e-39
-3072.8174 -245.59268 161.55455 7.0529664e-39
-3058.96 -269.23831 160.93311 7.0529664e-39
-3085.4253 -217.55624 162.10193 7.0529664e-39
-2630.4854 -155.05095 138.09888 7.0529664e-39
-3132.8704 -113.34608 164.29564 7.0529664e-39
-2629.7991 -122.05467 137.97067 7.0529664e-39
-3157.3171 -64.926201 165.50372 7.0529664e-39
-3145.0229 -85.37455 164.88446 7.0529664e-39
-3166.2681 -33.613361 165.94684 7.0529664e-39
-3136.3311 -13.5073 164.3698 7.0529664e-39
-3200.3677 39.106148 167.73676 7.0529664e-39
-3157.5103 31.413099 165.4863 7.0529664e-39
-3142.1455 13.812284 164.67508 7.0529664e-39
-3218.5513 69.96965 168.71803 7.0529664e-39
-3245.1755 123.7672 170.19652 7.0529664e-39
-3233.9629 101.44774 169.5685 7.0529664e-39
-3261.616 159.13504 171.1386 7.0529664e-39
-3287.5029 221.81415 172.6825 7.0529664e-39
-3277.0605 197.00627 172.05447 7.0529664e-39
-3301.2869 247.83743 173.50119 7.0529664e-39
-997.92499 243.45723 162.69185 7.0529664e-39
-987.64795 250.00504 161.36215 7.0529664e-39
-3330.2732 307.18149 175.2731 7.0529664e-39
-3320.6814 287.22723 174.67999 7.0529664e-39
-3334.8064 322.86722 175.58714 7.0529664e-39
-3306.9099 344.0462 174.24384 7.0529664e-39
-3372.4475 402.14001 177.9946 7.0529664e-39
-3312.4375 378.70798 174.72881 7.0529664e-39
-3386.3179 428.25119 178.88432 7.0529664e-39
-2938.2852 430.04126 155.62967 7.0529664e-39
-2912.2363 442.77332 154.37801 7.0529664e-39
-3401.6606 457.50595 179.87869 7.0529664e-39
-2918.6777 476.34311 154.9864 7.0529664e-39
-3004.8513 565.60571 160.24396 7.0529664e-39
-2836.7092 572.08661 151.65916 7.0529664e-39
-3011.0942 589.66315 160.8022 7.0529664e-39
-3064.99 638.0769 164.0732 7.0529664e-39
-3053.479 655.88812 163.67697 7.0529664e-39
-3061.605 677.6203 164.3349 7.0529664e-39
686.0509 968.21191 145.70496 7.0529664e-39
-376.24054 1033.3304 167.65033 7.0529664e-39
668.5639 1005.1672 148.22797 7.0529664e-39
675.85577 996.36078 147.8275 7.0529664e-39
-370.10129 1039.5205 165.98952 7.0529664e-39
-352.34848 1043.3749 174.42442 7.0529664e-39
-414.12311 1086.9235 142.81734 7.0529664e-39
-1704.0199 1150.6746 179.8895 7.0529664e-39
-1675.1965 1185.5896 179.55328 7.0529664e-39
-1646.4172 1202.9906 178.39911 7.0529664e-39
-1624.644 1218.3743 177.66698 7.0529664e-39
-1597.2167 1234.411 176.61105 7.0529664e-39
-1562.2841 1254.6373 175.30292 7.0529664e-39
-1553.2241 1279.1375 176.04007 7.0529664e-39
-1571.6677 1311.7941 179.10504 7.0529664e-39
-277.83887 1390.6619 174.12694 7.0529664e-39
-294.14468 1416.5839 177.64487 7.0529664e-39
-682.987 1700.3506 160.31429 7.0529664e-39
-669.48761 1706.3582 160.36659 7.0529664e-39
-370.70245 1843.1827 164.48779 7.0529664e-39
-346.82825 1841.1206 163.9109 7.0529664e-39
-376.53671 1845.7893 164.81149 7.0529664e-39
-336.27563 1849.4966 164.46291 7.0529664e-39
-1713.3076 1960.2056 136.43985 7.0529664e-39
-1731.3987 2000.0547 138.63795 7.0529664e-39
-1760.1152 2062.2874 142.0921 7.0529664e-39
-1750.1595 2041.2338 140.91455 7.0529664e-39
-1774.584 2095.8608 143.92386 7.0529664e-39
-1790.9189 2132.5942 145.94751 7.0529664e-39
-1810.2236 2176.3276 148.35501 7.0529664e-39
-1832.4116 2224.5076 151.04155 7.0529664e-39
-1853.554 2272.1707 153.67583 7.0529664e-39
-1876.2988 2322.3076 156.46707 7.0529664e-39
-1916.3625 2410.9248 161.4041 7.0529664e-39
-1939.5483 2459.437 164.15175 7.0529664e-39
-1927.2614 2431.5986 162.6078 7.0529664e-39
-1957.0642 2497.7476 166.2975 7.0529664e-39
-1973.7461 2535.4033 168.39096 7.0529664e-39
-1989.8733 2569.0305 170.30119 7.0529664e-39
-2028.8878 2653.675 175.0638 7.0529664e-39
-2013.7585 2620.6033 173.20584 7.0529664e-39
-2045.23 2687.6802 177.0002 7.0529664e-39
-2059.7617 2720.5312 178.832 7.0529664e-39
4072.9238 -11722.184 216.61055 7.0529664e-39
-1099.9684 -3488.6467 191.70662 7.0529664e-39
-1074.6422 -3499.6982 191.8636 7.0529664e-39
-1232.8645 -3338.2314 186.49915 7.0529664e-39
-1147.2844 -3347.4839 185.45245 7.0529664e-39
-1220.4066 -3329.5149 185.845 7.0529664e-39
-1197.3651 -3322.1157 185.06865 7.0529664e-39
-1164.5938 -3321.2354 184.44937 7.0529664e-39
-596.26318 -2334.4448 210.79491 7.0529664e-39
-563.14948 -2319.1284 208.7961 7.0529664e-39
-528.11401 -2304.5518 206.84964 7.0529664e-39
-503.43497 -2291.6372 205.27357 7.0529664e-39
-471.62033 -2277.7715 203.50867 7.0529664e-39
-430.62473 -2259.145 201.20993 7.0529664e-39
-14.5452 -2252.3491 197.0591 7.0529664e-39
1138.4304 -2280.3848 222.98798 7.0529664e-39
-409.48581 -2248.79 199.97885 7.0529664e-39
-382.15414 -2236.1892 198.47975 7.0529664e-39
-338.67599 -2215.8792 196.11784 7.0529664e-39
-5.2322669 -2246.741 196.56528 7.0529664e-39
21.667061 -2228.5435 194.98483 7.0529664e-39
-303.12665 -2199.7192 194.27016 7.0529664e-39
-243.52921 -2172.8142 191.28943 7.0529664e-39
-222.2058 -2161.3081 190.0867 7.0529664e-39
23.790701 -2198.4729 192.35271 7.0529664e-39
159.94899 -2180.5337 191.28506 7.0529664e-39
-199.40074 -2150.7991 188.97978 7.0529664e-39
-156.9053 -2142.2676 187.92955 7.0529664e-39
-111.59762 -2136.375 187.16696 7.0529664e-39
-75.489006 -2120.3936 185.6293 7.0529664e-39
-53.431458 -2110.6538 184.71788 7.0529664e-39
-28.835011 -2096.7754 183.46284 7.0529664e-39
1391.7849 -2041.8271 216.18982 7.0529664e-39
1320.7083 -1908.5179 203.05544 7.0529664e-39
1283.3033 -1823.5137 195.08356 7.0529664e-39
1250.2554 -1758.6301 188.7793 7.0529664e-39
1262.7307 -1782.7587 191.13251 7.0529664e-39
1241.6333 -1724.7717 185.93225 7.0529664e-39
1233.3262 -1681.4592 182.43875 7.0529664e-39
-2075.3989 -1495.7253 223.81595 7.0529664e-39
-2066.5413 -1513.8643 224.121 7.0529664e-39
-197.256 -1506.0718 186.50443 7.0529664e-39
-168.036 -1498.3669 185.13173 7.0529664e-39
-2086.0212 -1470.5223 223.29301 7.0529664e-39
-1898.9882 -1441.9316 208.60725 7.0529664e-39
-1936.0621 -1424.7819 210.30679 7.0529664e-39
-1908.3668 -1426.5005 208.45163 7.0529664e-39
-587.09711 -1350.8756 180.8541 7.0529664e-39
917.63556 -1358.364 201.2794 7.0529664e-39
-586.836 -1344.4937 180.12289 7.0529664e-39
937.21692 -1341.0349 200.88635 7.0529664e-39
961.36871 -1320.5222 200.56212 7.0529664e-39
-614.32391 -1272.5538 223.81599 7.0529664e-39
981.30151 -1301.2058 200.10948 7.0529664e-39
997.10864 -1288.1903 200.01807 7.0529664e-39
-679.65552 -1245.1488 224.67899 7.0529664e-39
-650.42029 -1250.7167 223.2896 7.0529664e-39
667.66846 -1243.4926 223.54483 7.0529664e-39
658.02582 -1209.4146 218.0696 7.0529664e-39
628.14014 -1137.5657 205.8156 7.0529664e-39
631.71381 -1133.9178 205.58614 7.0529664e-39
637.63257 -1120.1628 204.14694 7.0529664e-39
714.83356 -1060.1376 202.51559 7.0529664e-39
730.19513 -1042.7477 201.62663 7.0529664e-39
708.07947 -1020.2065 196.69028 7.0529664e-39
743.56317 -1023.6614 200.39253 7.0529664e-39
743.37628 -961.94373 192.56459 7.0529664e-39
768.65955 -946.28436 193.09227 7.0529664e-39
1129.2736 -967.67645 182.60092 7.0529664e-39
790.56555 -937.13269 194.19601 7.0529664e-39
818.45441 -922.03143 195.27289 7.0529664e-39
800.72913 -872.0459 187.51279 7.0529664e-39
810.03271 -892.08929 190.85001 7.0529664e-39
785.87268 -841.15631 182.32439 7.0529664e-39
-3407.9868 475.63736 180.33661 7.0529664e-39
-3472.2759 614.0213 184.79826 7.0529664e-39
-3463.1587 590.72449 184.1179 7.0529664e-39
-1721.1562 626.33508 224.88957 7.0529664e-39
-3481.8889 634.02209 185.47861 7.0529664e-39
-1712.9097 632.4895 224.19897 7.0529664e-39
-1702.3433 648.98254 223.69795 7.0529664e-39
-3558.6729 802.30786 191.1832 7.0529664e-39
-1538.1073 800.54718 212.90575 7.0529664e-39
-3570.0105 828.81683 192.07297 7.0529664e-39
-1534.0153 810.5061 213.0276 7.0529664e-39
-1506.7867 830.05646 211.23344 7.0529664e-39
-1480.599 852.5282 209.77774 7.0529664e-39
-1459.0326 869.74323 208.56723 7.0529664e-39
-1429.792 892.21057 206.93414 7.0529664e-39
-2029.9758 916.99524 194.88025 7.0529664e-39
-2018.9449 935.35638 194.67107 7.0529664e-39
-1408.0762 909.54755 205.82515 7.0529664e-39
-1388.5734 928.57355 205.10614 7.0529664e-39
-3632.8936 968.12604 197.03741 7.0529664e-39
-1994.934 956.34424 193.55547 7.0529664e-39
-1964.2916 980.34766 192.06944 7.0529664e-39
-1411.2804 970.87433 210.32907 7.0529664e-39
682.42639 987.51257 190.12004 7.0529664e-39
-3657.8884 1018.2878 198.99179 7.0529664e-39
-1944.2867 996.64581 191.14995 7.0529664e-39
-1911.9922 1015.3759 189.40527 7.0529664e-39
-1886.2314 1030.3281 188.03851 7.0529664e-39
-1440.0262 1032.0984 217.5368 7.0529664e-39
-1428.9617 1008.9823 214.78604 7.0529664e-39
627.25415 1006.4154 187.82567 7.0529664e-39
655.11755 1015.7399 191.44229 7.0529664e-39
677.84888 997.6264 191.03256 7.0529664e-39
-3670.4292 1046.7087 200.02805 7.0529664e-39
-1897.4749 1066.0378 190.4135 7.0529664e-39
-1885.1838 1041.5405 188.43069 7.0529664e-39
-1450.3231 1056.7955 220.33978 7.0529664e-39
-516.92963 1070.1897 188.25189 7.0529664e-39
-494.17441 1078.3759 187.87781 7.0529664e-39
-3700.7224 1112.6234 202.52271 7.0529664e-39
-1915.3265 1099.9358 193.23674 7.0529664e-39
-1465.3213 1088.9115 224.15837 7.0529664e-39
-472.27994 1090.2653 188.19778 7.0529664e-39
-431.17984 1100.9558 187.27968 7.0529664e-39
-401.74219 1081.4075 182.7155 7.0529664e-39
-3715.0496 1146.1965 203.75433 7.0529664e-39
-1940.7059 1155.7189 197.61694 7.0529664e-39
-1930.1394 1133.0154 195.80994 7.0529664e-39
-1706.1012 1163.5654 180.67387 7.0529664e-39
-3740.7156 1201.4989 205.90715 7.0529664e-39
-3729.1284 1178.658 204.96507 7.0529664e-39
-1959.6824 1193.582 200.74872 7.0529664e-39
-1694.4357 1175.25 180.41237 7.0529664e-39
-3757.6121 1240.1139 207.37601 7.0529664e-39
-1983.1478 1254.022 205.28085 7.0529664e-39
-1972.4686 1226.5361 203.21233 7.0529664e-39
-463.9595 1219.4583 206.6499 7.0529664e-39
-3786.5608 1303.0782 209.8672 7.0529664e-39
-3773.4285 1275.0465 208.74197 7.0529664e-39
-1996.285 1280.2443 207.48294 7.0529664e-39
-3797.3782 1326.7191 210.80925 7.0529664e-39
-3340.8103 1341.4144 188.67114 7.0529664e-39
-2031.868 1341.8157 213.0304 7.0529664e-39
-2012.1794 1329.5281 211.00406 7.0529664e-39
-1582.4934 1335.689 181.175 7.0529664e-39
-3828.2393 1391.8521 213.47839 7.0529664e-39
-3816.7073 1365.6627 212.44475 7.0529664e-39
-3335 1363.7162 188.82814 7.0529664e-39
-1600.5959 1374.9937 184.61038 7.0529664e-39
-3835.6345 1408.4597 214.1413 7.0529664e-39
-1624.2775 1426.8551 189.14975 7.0529664e-39
-1613.1812 1401.3286 186.9491 7.0529664e-39
-1542.2649 1418.4789 183.32338 7.0529664e-39
-302.7027 1436.4275 180.2448 7.0529664e-39
-3871.6785 1476.906 217.16806 7.0529664e-39
-3866.2954 1475.6215 216.8802 7.0529664e-39
-1640.1545 1461.1508 192.17842 7.0529664e-39
-1504.9032 1454.3417 183.10081 7.0529664e-39
-318.9407 1472.0327 184.93671 7.0529664e-39
-309.44754 1450.2159 182.0728 7.0529664e-39
-3951.0417 1485.8861 221.22411 7.0529664e-39
-3882.3521 1509.4749 218.30371 7.0529664e-39
-1666.7384 1511.3091 196.84125 7.0529664e-39
-1645.2971 1518.8593 195.90871 7.0529664e-39
-1511.2269 1508.7373 186.82707 7.0529664e-39
-610.01166 1523.5945 201.51096 7.0529664e-39
-335.853 1509.474 189.87244 7.0529664e-39
-3897.9033 1544.4812 219.7325 7.0529664e-39
-1626.5837 1532.0101 195.49036 7.0529664e-39
-1533.4362 1557.447 191.2197 7.0529664e-39
-1524.5154 1538.9551 189.52014 7.0529664e-39
-607.92926 1541.5063 203.46088 7.0529664e-39
-345.73889 1531.6716 192.7973 7.0529664e-39
-1552.4264 1599.338 195.00227 7.0529664e-39
-3945.2915 1650.0894 224.12 7.0529664e-39
-1580.3788 1658.9814 200.45821 7.0529664e-39
-1569.2972 1637.4178 198.42456 7.0529664e-39
-3955.6228 1668.4803 224.99229 7.0529664e-39
-1593.4421 1691.5415 203.31256 7.0529664e-39
-675.53259 1675.3685 221.8022 7.0529664e-39
-1611.8074 1733.0244 207.06027 7.0529664e-39
-1630.5786 1776.6006 210.97501 7.0529664e-39
-1651.8818 1821.3313 215.12215 7.0529664e-39
-1672.9832 1865.4646 219.22574 7.0529664e-39
-1693.0427 1911.6385 223.40924 7.0529664e-39
-859.17828 2092.0522 197.86533 7.0529664e-39
-986.47949 2313.5193 220.03923 7.0529664e-39
-991.61322 2346.3347 222.85719 7.0529664e-39
-2069.7998 2741.7358 180.03571 7.0529664e-39
-2084.7334 2776.1172 181.94595 7.0529664e-39
-2111.1077 2834.3325 185.2169 7.0529664e-39
-2120.4407 2857.2588 186.47301 7.0529664e-39
-2137.6746 2894.1992 188.56644 7.0529664e-39
-2171.4126 2963.6018 192.54401 7.0529664e-39
-2157.729 2935.2441 190.9216 7.0529664e-39
-2182.1345 2989.1646 193.95711 7.0529664e-39
-2207.3232 3043.7019 197.04491 7.0529664e-39
-2195.0017 3015.623 195.47479 7.0529664e-39
-2230.3958 3094.7964 199.9234 7.0529664e-39
-2243.6296 3124.6421 201.5981 7.0529664e-39
-2268.1653 3174.0127 204.45044 7.0529664e-39
-2289.6196 3219.4272 207.041 7.0529664e-39
-2309.1353 3264.3511 209.55319 7.0529664e-39
-2330.7661 3310.2007 212.17 7.0529664e-39
-2346.2048 3344.5122 214.1064 7.0529664e-39
-2375.0806 3408.4001 217.71761 7.0529664e-39
-2390.231 3441.6545 219.6017 7.0529664e-39
-2413.6304 3492.2598 222.48015 7.0529664e-39
-4390.5342 9493.2822 182.5696 7.0529664e-39
-4376.4531 9501.9834 182.60451 7.0529664e-39
-4361.522 9508.8457 182.60451 7.0529664e-39
-5768.2563 9714.8506 197.2122 7.0529664e-39
-5736.3433 9734.4922 197.2238 7.0529664e-39
4684.8462 -14091.378 259.20309 7.0529664e-39
4706.3413 -14082.105 259.16821 7.0529664e-39
4739.457 -14066.77 259.09845 7.0529664e-39
4159.7397 -13018.492 238.5569 7.0529664e-39
4209.6963 -13002.427 238.5569 7.0529664e-39
4238.875 -12991.889 238.53946 7.0529664e-39
844.42566 -4462.5757 238.02396 7.0529664e-39
790.46844 -4433.1357 235.9959 7.0529664e-39
823.21814 -4444.5308 236.88998 7.0529664e-39
304.5029 -2646.3567 233.05444 7.0529664e-39
332.68842 -2643.9531 233.14163 7.0529664e-39
1192.5717 -2454.125 238.7196 7.0529664e-39
-1589.7253 -2420.5793 253.36172 7.0529664e-39
170.80276 -2176.1611 268.02112 7.0529664e-39
-201.08002 -2148.6445 264.9772 7.0529664e-39
-166.87186 -2133.5613 262.77063 7.0529664e-39
156.53215 -2144.1458 263.96899 7.0529664e-39
-96.123055 -2098.5203 257.93646 7.0529664e-39
-61.816853 -2079.1924 255.40765 7.0529664e-39
-41.118069 -2072.3579 254.50383 7.0529664e-39
-17.940481 -2061.2144 253.09825 7.0529664e-39
21.221775 -2043.5887 250.93913 7.0529664e-39
53.805798 -2030.1948 249.36499 7.0529664e-39
109.1167 -2036.4266 250.40091 7.0529664e-39
77.708649 -2018.5659 248.03459 7.0529664e-39
96.123337 -2010.9167 247.19168 7.0529664e-39
898.71167 -1814.4169 248.61349 7.0529664e-39
897.21423 -1790.3955 245.89171 7.0529664e-39
909.36469 -1786.4047 246.12735 7.0529664e-39
-2420.1279 -1671.8203 257.34189 7.0529664e-39
-2200.6953 -1695.9877 243.07739 7.0529664e-39
-2235.8184 -1629.1917 242.03149 7.0529664e-39
851.453 -1627.9872 225.5802 7.0529664e-39
860.49384 -1659.8308 229.56125 7.0529664e-39
-2451.0884 -1599.0764 256.04611 7.0529664e-39
-2479.6467 -1537.4481 255.25742 7.0529664e-39
-2468.1357 -1561.9047 255.54065 7.0529664e-39
-2043.7684 -1562.5784 225.07971 7.0529664e-39
-2493.6677 -1507.9792 254.95961 7.0529664e-39
-197.21025 -1515.1478 242.00415 7.0529664e-39
-166.07402 -1502.3873 239.40727 7.0529664e-39
-2508.2656 -1479.5458 254.77802 7.0529664e-39
-2543.0024 -1409.7577 254.38583 7.0529664e-39
-2566.71 -1354.9902 253.92825 7.0529664e-39
-2558.2576 -1374.6077 254.08391 7.0529664e-39
-588.82727 -1355.1859 234.026 7.0529664e-39
713.61859 -1391.3342 247.66187 7.0529664e-39
724.96997 -1385.269 247.63579 7.0529664e-39
-2580.3523 -1326.5785 253.84111 7.0529664e-39
-588.91101 -1321.1475 229.0983 7.0529664e-39
-2600.6919 -1282.6443 253.70074 7.0529664e-39
-596.87976 -1295.8522 225.96959 7.0529664e-39
-2621.8657 -1238.7908 253.70166 7.0529664e-39
-703.88715 -1250.5077 227.28505 7.0529664e-39
667.12939 -1259.4567 225.73489 7.0529664e-39
-2641.8608 -1192.4048 253.58833 7.0529664e-39
-2661.1479 -1142.9265 253.38663 7.0529664e-39
-2652.564 -1163.2896 253.4053 7.0529664e-39
-2673.79 -1117.5073 253.53607 7.0529664e-39
-2706.8354 -1048.7333 253.97183 7.0529664e-39
-2723.4038 -1011.7416 254.18095 7.0529664e-39
-2749.9519 -953.22186 254.63419 7.0529664e-39
-2738.3359 -977.22882 254.37276 7.0529664e-39
-2763.6052 -920.74847 254.85309 7.0529664e-39
-2792.4209 -858.26111 255.5842 7.0529664e-39
-2781.0596 -880.79333 255.2247 7.0529664e-39
-2805.6748 -832.07361 256.03452 7.0529664e-39
-2825.8262 -787.32654 256.64752 7.0529664e-39
-2841.6616 -753.09125 257.19662 7.0529664e-39
-2872.417 -688.18835 258.41678 7.0529664e-39
-2890.6421 -651.77728 259.24957 7.0529664e-39
-2910.2869 -608.27325 260.12119 7.0529664e-39
-2931.1907 -561.99457 261.11862 7.0529664e-39
-2924.2183 -582.19379 260.85709 7.0529664e-39
-2949.9575 -519.909 262.06766 7.0529664e-39
-2974.7517 -468.9332 263.4718 7.0529664e-39
-2965.4734 -488.9809 262.94888 7.0529664e-39
-2993.3423 -430.9187 264.58548 7.0529664e-39
-3015.7422 -386.3255 265.9993 7.0529664e-39
-3009.0818 -396.95282 265.54181 7.0529664e-39
-3042.2253 -326.01367 267.68433 7.0529664e-39
-3065.0813 -284.33899 269.31119 7.0529664e-39
-3054.3386 -300.64026 268.51233 7.0529664e-39
-2626.4846 -234.40953 230.70128 7.0529664e-39
-2622.3506 -208.06841 230.14926 7.0529664e-39
-2634.5007 -162.61533 230.93004 7.0529664e-39
-2607.4717 -136.1955 228.4352 7.0529664e-39
-2620.2493 -112.10751 229.452 7.0529664e-39
-2605.4895 -125.94705 228.21733 7.0529664e-39
-1675.3533 160.01683 266.56433 7.0529664e-39
-1665.6216 182.70981 265.39111 7.0529664e-39
-1652.2576 204.36253 263.69263 7.0529664e-39
-1630.0377 238.19168 260.91849 7.0529664e-39
-1614.3148 259.96136 258.97726 7.0529664e-39
-1592.4537 291.2431 256.41348 7.0529664e-39
-1566.0392 335.08057 253.65848 7.0529664e-39
-1580.1844 370.01544 257.04785 7.0529664e-39
-1608.2712 430.46112 263.69638 7.0529664e-39
-1833.2021 492.00464 233.05484 7.0529664e-39
-1627.1171 470.83356 268.2851 7.0529664e-39
-1618.09 452.08331 266.095 7.0529664e-39
-3009.7388 535.39032 267.45197 7.0529664e-39
-2840.366 533.09949 252.83881 7.0529664e-39
-2834.6311 536.63391 252.403 7.0529664e-39
-1818.8544 519.80212 232.27486 7.0529664e-39
-1409.6957 526.94421 238.36705 7.0529664e-39
-3003.6616 552.18262 267.19049 7.0529664e-39
-2839.5132 583.90131 253.6232 7.0529664e-39
-2821.502 556.52417 251.60774 7.0529664e-39
-1780.2427 562.9884 229.26491 7.0529664e-39
-1398.1934 544.00586 237.62395 7.0529664e-39
-1379.6339 565.89581 236.18997 7.0529664e-39
-2842.3914 589.66577 253.9718 7.0529664e-39
-1757.8213 590.65881 227.69257 7.0529664e-39
-1738.8568 607.052 226.14519 7.0529664e-39
-1355.8252 592.58563 234.35838 7.0529664e-39
-1335.4484 616.20355 232.95177 7.0529664e-39
-1714.7546 671.83362 226.1286 7.0529664e-39
-1313.1973 638.42267 231.2688 7.0529664e-39
-1292.1062 660.49463 229.84399 7.0529664e-39
-1729.4989 699.41272 229.06563 7.0529664e-39
-1285.0574 695.97546 231.47086 7.0529664e-39
-1756.1254 757.76093 234.84219 7.0529664e-39
-1748.1283 739.50055 233.05988 7.0529664e-39
-1314.1765 750.99445 239.73581 7.0529664e-39
-1302.6343 726.9281 236.26817 7.0529664e-39
-1768.4932 785.14349 237.58427 7.0529664e-39
-1332.0248 789.039 245.21104 7.0529664e-39
-1788.4529 829.62872 242.07314 7.0529664e-39
-1355.2369 841.56464 252.66776 7.0529664e-39
-1346.1304 820.72229 249.70851 7.0529664e-39
-1809.0103 875.86621 246.78543 7.0529664e-39
-1799.1818 855.08411 244.5918 7.0529664e-39
-1371.5653 877.28418 257.87354 7.0529664e-39
-1828.6208 919.35339 251.30814 7.0529664e-39
-1398.8076 938.55127 266.79895 7.0529664e-39
-1389.0741 916.10608 263.54742 7.0529664e-39
-1404.6464 951.97607 268.75439 7.0529664e-39
-1475.4521 1110.8494 226.76837 7.0529664e-39
-1492.6165 1149.9896 231.35677 7.0529664e-39
-1483.6506 1130.0363 228.99249 7.0529664e-39
-1511.052 1190.9594 236.23505 7.0529664e-39
-1536.9984 1247.151 243.03185 7.0529664e-39
-1523.952 1218.7365 239.59509 7.0529664e-39
-1551.5123 1280.1909 246.98039 7.0529664e-39
-1580.9424 1341.5371 254.58507 7.0529664e-39
-1569.1292 1316.6731 251.50784 7.0529664e-39
-1595.5895 1374.7975 258.60675 7.0529664e-39
-1621.0691 1428.6619 265.3096 7.0529664e-39
-1612.3977 1410.3264 263.02454 7.0529664e-39
-1537.3975 1419.1702 256.9006 7.0529664e-39
-1631.9404 1454.9221 268.44772 7.0529664e-39
-1502.1653 1455.9397 256.86578 7.0529664e-39
-1505.9434 1508.8495 261.75095 7.0529664e-39
-1534.36 1574.5146 269.94061 7.0529664e-39
-1524.2394 1551.78 267.07666 7.0529664e-39
-610.45508 1538.6943 262.1842 7.0529664e-39
-3965.4983 1691.8513 225.94743 7.0529664e-39
-3979.8848 1723.4998 227.29504 7.0529664e-39
-709.90253 1753.5447 232.283 7.0529664e-39
-749.99408 1843.3198 244.34801 7.0529664e-39
-4072.9575 1927.0179 236.1398 7.0529664e-39
-4085.9226 1956.4485 237.41685 7.0529664e-39
-1715.2034 1961.583 227.97037 7.0529664e-39
-1703.5944 1936.4326 225.64619 7.0529664e-39
