# .PCD v0.7 - Point Cloud Data file format
VERSION 0.7
FIELDS x y z rgb
SIZE 4 4 4 4
TYPE F F F F
COUNT 1 1 1 1
WIDTH 1368
HEIGHT 1
VIEWPOINT 0 0 0 1 0 0 0
POINTS 1368
DATA ascii
56.990101 43.983501 1.2566 0.050000001
51.406601 47.370201 3.6635001 0.050000001
53.6418 41.3694 5.9266 0.050000001
49.649601 45.7192 8.2870998 0.050000001
50.844299 39.1978 10.1682 0.050000001
0 0 -0 0.050000001
27.248699 25.0301 0 0.050000001
57.066799 43.8839 1.2566 0.050000001
50.018101 45.9296 3.5588 0.050000001
53.699501 41.294498 5.9266 0.050000001
48.9902 44.969898 8.1652002 0.050000001
50.898998 39.126801 10.1682 0.050000001
0 0 -0 0.050000001
0 0 -0 0.050000001
29.5429 26.9669 0 0.050000001
57.1968 43.714401 1.2566 0.050000001
50.162102 45.772202 3.5588 0.050000001
53.828999 41.125599 5.9266 0.050000001
49.123402 44.824402 8.1652002 0.050000001
50.243401 38.358398 10.0118 0.050000001
0 0 -0 0.050000001
0 0 -0 0.050000001
0 0 -0 0.050000001
30.320101 27.598801 0 0.050000001
57.272999 43.614498 1.2566 0.050000001
51.711399 47.0373 3.6635001 0.050000001
53.9007 41.031601 5.9266 0.050000001
48.467201 44.070801 8.0433998 0.050000001
51.868698 39.484699 10.3247 0.050000001
0 0 -0 0.050000001
31.1089 28.217699 0 0.050000001
57.333801 43.5345 1.2566 0.050000001
51.7771 46.965 3.6635001 0.050000001
53.965099 40.946899 5.9266 0.050000001
48.536301 43.994598 8.0433998 0.050000001
51.9375 39.3941 10.3247 0.050000001
0 0 -0 0.050000001
0 0 -0 0.050000001
31.894899 28.8395 0 0.050000001
57.4021 43.444401 1.2566 0.050000001
51.858898 46.874599 3.6635001 0.050000001
54.022202 40.871498 5.9266 0.050000001
49.341801 44.583801 8.1652002 0.050000001
51.992401 39.321602 10.3247 0.050000001
0 0 -0 0.050000001
0 0 -0 0.050000001
33.420502 30.134199 0 0.050000001
57.470299 43.354198 1.2566 0.050000001
52.6661 47.470699 3.7158999 0.050000001
53.298 40.177502 5.8393998 0.050000001
49.4118 44.506199 8.1652002 0.050000001
52.0541 39.239899 10.3247 0.050000001
0 0 -0 0.050000001
34.960701 31.4125 0 0.050000001
56.739201 42.662998 1.2391 0.050000001
52.748901 47.378799 3.7158999 0.050000001
53.354 40.103001 5.8393998 0.050000001
49.4739 44.437199 8.1652002 0.050000001
52.9123 39.7421 10.4811 0.050000001
0 0 -0 0.050000001
37.238899 33.365601 0 0.050000001
57.6138 43.163399 1.2566 0.050000001
52.823299 47.295799 3.7158999 0.050000001
53.423901 40.0098 5.8393998 0.050000001
49.551399 44.3508 8.1652002 0.050000001
52.1772 39.076099 10.3247 0.050000001
0 0 -0 0.050000001
0 0 -0 0.050000001
0 0 -0 0.050000001
39.534901 35.298599 0 0.050000001
56.872898 42.484501 1.2391 0.050000001
52.889198 47.222 3.7158999 0.050000001
53.486698 39.9259 5.8393998 0.050000001
50.361599 44.933701 8.2870998 0.050000001
52.2453 38.985001 10.3247 0.050000001
0 0 -0 0.050000001
0 0 -0 0.050000001
42.578201 37.895802 0 0.050000001
57.7416 42.992199 1.2566 0.050000001
52.9716 47.1297 3.7158999 0.050000001
53.5424 39.851101 5.8393998 0.050000001
50.432098 44.8545 8.2870998 0.050000001
51.507301 38.322399 10.1682 0.050000001
0 0 -0 0.050000001
0 0 -0 0.050000001
46.442402 41.074299 0 0.050000001
55.464802 41.026798 1.2042 0.050000001
53.111198 46.972301 3.7158999 0.050000001
53.667301 39.682701 5.8393998 0.050000001
49.8214 44.047199 8.1652002 0.050000001
52.428398 38.7384 10.3247 0.050000001
47.999699 42.332298 0 0.050000001
57.146099 42.116402 1.2391 0.050000001
54.691502 48.2001 3.8204999 0.050000001
53.729599 39.5984 5.8393998 0.050000001
49.898201 43.960201 8.1652002 0.050000001
51.687302 38.0793 10.1682 0.050000001
0 0 -0 0.050000001
50.327 44.228901 0 0.050000001
56.3992 41.4445 1.2217 0.050000001
53.258499 46.805199 3.7158999 0.050000001
54.601601 40.0942 5.9266 0.050000001
50.712898 44.536701 8.2870998 0.050000001
52.5499 38.573502 10.3247 0.050000001
0 0 -0 0.050000001
54.157299 47.4445 0 0.050000001
57.270802 41.946602 1.2391 0.050000001
53.340099 46.7122 3.7158999 0.050000001
54.657501 40.017899 5.9266 0.050000001
51.529701 45.110802 8.4090004 0.050000001
52.603699 38.500099 10.3247 0.050000001
0 0 -0 0.050000001
54.985001 48.0172 0 0.050000001
57.336601 41.856602 1.2391 0.050000001
52.653099 45.980801 3.6635001 0.050000001
54.727299 39.922401 5.9266 0.050000001
50.8526 44.377201 8.2870998 0.050000001
52.670799 38.408199 10.3247 0.050000001
0 0 -0 0.050000001
55.814602 48.587299 0 0.050000001
56.5938 41.1782 1.2217 0.050000001
53.486599 46.544399 3.7158999 0.050000001
54.783001 39.846001 5.9266 0.050000001
50.181 43.6371 8.1652002 0.050000001
52.731098 38.325401 10.3247 0.050000001
0 0 -0 0.050000001
55.143902 47.834599 0 0.050000001
56.6656 41.079399 1.2217 0.050000001
52.805302 45.805901 3.6635001 0.050000001
54.045799 39.165798 5.8393998 0.050000001
50.991798 44.217201 8.2870998 0.050000001
53.584301 38.831299 10.4811 0.050000001
0 0 -0 0.050000001
55.210701 47.7575 0 0.050000001
55.102299 39.8288 1.1868 0.050000001
52.129601 45.0606 3.6112001 0.050000001
54.914799 39.664101 5.9266 0.050000001
51.812099 44.786098 8.4090004 0.050000001
52.8512 38.159599 10.3247 0.050000001
0 0 -0 0.050000001
54.528301 47.0177 0 0.050000001
56.794399 40.901199 1.2217 0.050000001
52.192501 44.987801 3.6112001 0.050000001
54.168499 38.9958 5.8393998 0.050000001
52.6343 45.3526 8.5309 0.050000001
52.9044 38.085701 10.3247 0.050000001
0 0 -0 0.050000001
56.1945 48.147499 0 0.050000001
56.915501 40.732498 1.2217 0.050000001
52.333599 44.823601 3.6112001 0.050000001
53.473801 38.255299 5.7522998 0.050000001
51.276299 43.887001 8.2870998 0.050000001
53.030399 37.910099 10.3247 0.050000001
0 0 -0 0.050000001
57.7995 49.348 0 0.050000001
56.9865 40.633099 1.2217 0.050000001
51.644402 44.092899 3.5588 0.050000001
54.3517 38.740101 5.8393998 0.050000001
52.0924 44.459702 8.4090004 0.050000001
53.0965 37.817501 10.3247 0.050000001
0 0 -0 0.050000001
58.6297 49.915501 0 0.050000001
56.228298 39.974098 1.2042 0.050000001
52.481899 44.649799 3.6112001 0.050000001
54.412498 38.654701 5.8393998 0.050000001
52.169998 44.368698 8.4090004 0.050000001
53.1493 37.743301 10.3247 0.050000001
0 0 -0 0.050000001
0 0 -0 0.050000001
58.708099 49.823299 0 0.050000001
57.113899 40.4538 1.2217 0.050000001
52.544201 44.5765 3.6112001 0.050000001
54.473099 38.569099 5.8393998 0.050000001
52.231899 44.295799 8.4090004 0.050000001
53.2019 37.669102 10.3247 0.050000001
0 0 -0 0.050000001
58.786301 49.730999 0 0.050000001
56.3536 39.797298 1.2042 0.050000001
53.384602 45.129398 3.6635001 0.050000001
54.533699 38.483501 5.8393998 0.050000001
51.5434 43.573002 8.2870998 0.050000001
54.074699 38.1455 10.4811 0.050000001
0 0 -0 0.050000001
59.628799 50.283298 0 0.050000001
56.416 39.708698 1.2042 0.050000001
51.920502 43.767601 3.5588 0.050000001
54.587299 38.407299 5.8393998 0.050000001
52.378502 44.122398 8.4090004 0.050000001
53.3265 37.492401 10.3247 0.050000001
0 0 -0 0.050000001
58.185299 48.892502 0 0.050000001
56.485199 39.610199 1.2042 0.050000001
53.5182 44.970798 3.6635001 0.050000001
53.8386 37.7402 5.7522998 0.050000001
51.68 43.410801 8.2870998 0.050000001
53.391899 37.3993 10.3247 0.050000001
0 0 -0 0.050000001
59.02 49.453499 0 0.050000001
56.540501 39.5313 1.2042 0.050000001
52.831001 44.236301 3.6112001 0.050000001
54.714401 38.226101 5.8393998 0.050000001
51.7481 43.329601 8.2870998 0.050000001
53.444099 37.324699 10.3247 0.050000001
0 0 -0 0.050000001
59.097599 49.360699 0 0.050000001
56.609402 39.432499 1.2042 0.050000001
52.8927 44.162498 3.6112001 0.050000001
54.774399 38.140099 5.8393998 0.050000001
49.530102 41.340199 7.9215002 0.050000001
53.496101 37.25 10.3247 0.050000001
0 0 -0 0.050000001
0 0 -0 0.050000001
58.4828 48.536098 0 0.050000001
57.548302 39.8335 1.2217 0.050000001
53.0312 43.996101 3.6112001 0.050000001
54.887299 37.977402 5.8393998 0.050000001
49.667 41.1758 7.9215002 0.050000001
53.6194 37.072399 10.3247 0.050000001
0 0 -0 0.050000001
58.567501 48.433998 0 0.050000001
56.794601 39.165298 1.2042 0.050000001
53.107899 43.9034 3.6112001 0.050000001
54.133301 37.3162 5.7522998 0.050000001
50.489399 41.7388 8.0433998 0.050000001
54.497398 37.539101 10.4811 0.050000001
0 0 -0 0.050000001
58.634998 48.3522 0 0.050000001
57.687 39.632301 1.2217 0.050000001
52.406101 43.184898 3.5588 0.050000001
55.012901 37.7952 5.8393998 0.050000001
50.562199 41.6506 8.0433998 0.050000001
54.549702 37.463001 10.4811 0.050000001
0 0 -0 0.050000001
0 0 -0 0.050000001
60.264599 49.519501 0 0.050000001
56.9174 38.986698 1.2042 0.050000001
54.0172 44.370201 3.6635001 0.050000001
55.072201 37.708698 5.8393998 0.050000001
49.853298 40.950001 7.9215002 0.050000001
53.7999 36.810001 10.3247 0.050000001
0 0 -0 0.050000001
0 0 -0 0.050000001
59.5602 48.801498 0 0.050000001
57.811199 39.450901 1.2217 0.050000001
52.5415 43.02 3.5588 0.050000001
54.308498 37.060699 5.7522998 0.050000001
49.924702 40.8629 7.9215002 0.050000001
54.667198 37.291401 10.4811 0.050000001
0 0 -0 0.050000001
60.411201 49.3405 0 0.050000001
56.212898 38.2453 1.1868 0.050000001
52.601501 42.946602 3.5588 0.050000001
55.196999 37.525902 5.8393998 0.050000001
49.9888 40.784401 7.9215002 0.050000001
54.732201 37.1959 10.4811 0.050000001
0 0 -0 0.050000001
0 0 -0 0.050000001
58.170399 47.341301 0 0.050000001
57.100399 38.718102 1.2042 0.050000001
52.676399 42.854801 3.5588 0.050000001
54.424702 36.8899 5.7522998 0.050000001
49.289799 40.070999 7.7996001 0.050000001
53.972698 36.556 10.3247 0.050000001
0 0 -0 0.050000001
59.789501 48.520302 0 0.050000001
57.1679 38.618401 1.2042 0.050000001
52.743698 42.771999 3.5588 0.050000001
55.308102 37.362 5.8393998 0.050000001
49.345699 40.002102 7.7996001 0.050000001
54.023701 36.480598 10.3247 0.050000001
0 0 -0 0.050000001
59.8741 48.415901 0 0.050000001
57.221802 38.538502 1.2042 0.050000001
52.803299 42.698299 3.5588 0.050000001
55.366699 37.275101 5.8393998 0.050000001
50.945301 41.181099 8.0433998 0.050000001
54.087299 36.386299 10.3247 0.050000001
0 0 -0 0.050000001
60.017399 48.237999 0 0.050000001
57.342602 38.358501 1.2042 0.050000001
52.158699 41.9067 3.5065 0.050000001
55.490002 37.091202 5.8393998 0.050000001
49.5336 39.769199 7.7996001 0.050000001
55.016201 36.774502 10.4811 0.050000001
0 0 -0 0.050000001
60.101501 48.133202 0 0.050000001
57.402802 38.268398 1.2042 0.050000001
51.452202 41.191502 3.4542 0.050000001
54.712799 36.4613 5.7522998 0.050000001
49.603001 39.682598 7.7996001 0.050000001
55.080299 36.678501 10.4811 0.050000001
0 0 -0 0.050000001
60.9501 48.673199 0 0.050000001
57.469501 38.168201 1.2042 0.050000001
53.077999 42.3564 3.5588 0.050000001
54.776299 36.3657 5.7522998 0.050000001
49.658298 39.6133 7.7996001 0.050000001
54.308601 36.055199 10.3247 0.050000001
0 0 -0 0.050000001
60.252499 47.944099 0 0.050000001
58.3564 38.6399 1.2217 0.050000001
52.3629 41.651299 3.5065 0.050000001
54.827 36.2892 5.7522998 0.050000001
50.504398 40.144199 7.9215002 0.050000001
55.195202 36.505199 10.4811 0.050000001
0 0 -0 0.050000001
60.319302 47.860001 0 0.050000001
57.5891 37.9874 1.2042 0.050000001
52.4282 41.569 3.5065 0.050000001
55.722 36.741901 5.8393998 0.050000001
49.782501 39.4571 7.7996001 0.050000001
54.4216 35.884399 10.3247 0.050000001
0 0 -0 0.050000001
60.402802 47.754601 0 0.050000001
57.642101 37.907001 1.2042 0.050000001
53.2696 42.115101 3.5588 0.050000001
55.779598 36.654301 5.8393998 0.050000001
50.623299 39.994202 7.9215002 0.050000001
55.3097 36.331699 10.4811 0.050000001
0 0 -0 0.050000001
60.477699 47.659698 0 0.050000001
57.708199 37.806301 1.2042 0.050000001
52.558601 41.404099 3.5065 0.050000001
55.8307 36.576401 5.8393998 0.050000001
49.913101 39.291801 7.7996001 0.050000001
55.366699 36.244701 10.4811 0.050000001
0 0 -0 0.050000001
59.7579 46.957298 0 0.050000001
57.767502 37.715599 1.2042 0.050000001
52.6236 41.321499 3.5065 0.050000001
55.894501 36.478901 5.8393998 0.050000001
50.748699 39.834999 7.9215002 0.050000001
55.417198 36.1674 10.4811 0.050000001
0 0 -0 0.050000001
60.627201 47.469398 0 0.050000001
57.820099 37.634899 1.2042 0.050000001
51.902 40.623299 3.4542 0.050000001
55.9454 36.400799 5.8393998 0.050000001
50.036301 39.1348 7.7996001 0.050000001
55.480202 36.070599 10.4811 0.050000001
0 0 -0 0.050000001
60.776001 47.278702 0 0.050000001
57.938 37.453098 1.2042 0.050000001
52.810501 41.082298 3.5065 0.050000001
55.229 35.6745 5.7522998 0.050000001
50.152199 38.986198 7.7996001 0.050000001
55.5933 35.896099 10.4811 0.050000001
0 0 -0 0.050000001
60.059898 46.570499 0 0.050000001
57.996799 37.362099 1.2042 0.050000001
52.882099 40.990002 3.5065 0.050000001
55.278702 35.597401 5.7522998 0.050000001
51.004799 39.506401 7.9215002 0.050000001
55.649601 35.8088 10.4811 0.050000001
0 0 -0 0.050000001
59.333801 45.874901 0 0.050000001
58.061901 37.260799 1.2042 0.050000001
52.946499 40.906898 3.5065 0.050000001
56.173 36.048599 5.8393998 0.050000001
51.060001 39.4352 7.9215002 0.050000001
54.868198 35.197701 10.3247 0.050000001
0 0 -0 0.050000001
58.621601 45.160999 0 0.050000001
57.271599 36.6408 1.1868 0.050000001
53.794601 41.442402 3.5588 0.050000001
56.2295 35.9603 5.8393998 0.050000001
50.328602 38.758202 7.7996001 0.050000001
55.761799 35.633801 10.4811 0.050000001
0 0 -0 0.050000001
0 0 -0 0.050000001
58.684601 45.079102 0 0.050000001
58.178699 37.078201 1.2042 0.050000001
53.074699 40.740398 3.5065 0.050000001
55.4459 35.336498 5.7522998 0.050000001
51.183601 39.274502 7.9215002 0.050000001
54.9785 35.0252 10.3247 0.050000001
0 0 -0 0.050000001
0 0 -0 0.050000001
59.549301 45.594799 0 0.050000001
58.2304 36.996899 1.2042 0.050000001
53.924599 41.273201 3.5588 0.050000001
55.507401 35.2397 5.7522998 0.050000001
52.0336 39.7971 8.0433998 0.050000001
55.867298 35.468201 10.4811 0.050000001
0 0 -0 0.050000001
59.628799 45.490799 0 0.050000001
57.443699 36.370499 1.1868 0.050000001
53.2024 40.573399 3.5065 0.050000001
55.556599 35.162102 5.7522998 0.050000001
52.103001 39.7062 8.0433998 0.050000001
55.9291 35.370602 10.4811 0.050000001
0 0 -0 0.050000001
59.6922 45.407501 0 0.050000001
58.352798 36.8036 1.2042 0.050000001
54.0611 41.094101 3.5588 0.050000001
55.611801 35.074799 5.7522998 0.050000001
52.158401 39.6334 8.0433998 0.050000001
55.9785 35.2925 10.4811 0.050000001
0 0 -0 0.050000001
58.9744 44.6992 0 0.050000001
58.404099 36.722099 1.2042 0.050000001
53.322601 40.415401 3.5065 0.050000001
55.666801 34.9874 5.7522998 0.050000001
51.422501 38.961201 7.9215002 0.050000001
55.203602 34.669399 10.3247 0.050000001
0 0 -0 0.050000001
59.905499 45.125702 0 0.050000001
58.519199 36.538399 1.2042 0.050000001
53.449299 40.2477 3.5065 0.050000001
55.782501 34.802601 5.7522998 0.050000001
51.551498 38.790401 7.9215002 0.050000001
55.306198 34.505501 10.3247 0.050000001
0 0 -0 0.050000001
59.184399 44.420799 0 0.050000001
57.7276 35.918301 1.1868 0.050000001
53.519501 40.154301 3.5065 0.050000001
54.9851 34.198601 5.6651001 0.050000001
51.619099 38.700401 7.9215002 0.050000001
55.366299 34.408901 10.3247 0.050000001
0 0 -0 0.050000001
58.445801 43.738899 0 0.050000001
57.790199 35.817501 1.1868 0.050000001
53.5825 40.070202 3.5065 0.050000001
55.891602 34.627201 5.7522998 0.050000001
51.6731 38.6283 7.9215002 0.050000001
55.414299 34.3316 10.3247 0.050000001
0 0 -0 0.050000001
58.521999 43.636902 0 0.050000001
56.989498 35.211201 1.1693 0.050000001
53.645302 39.986 3.5065 0.050000001
57.634998 35.5961 5.9266 0.050000001
51.727001 38.556099 7.9215002 0.050000001
55.474098 34.234798 10.3247 0.050000001
0 0 -0 0.050000001
58.582901 43.555099 0 0.050000001
58.753899 36.159801 1.2042 0.050000001
52.906502 39.306099 3.4542 0.050000001
55.994099 34.461201 5.7522998 0.050000001
50.997299 37.874001 7.7996001 0.050000001
55.5219 34.157299 10.3247 0.050000001
59.462399 44.048 0 0.050000001
58.804298 36.077702 1.2042 0.050000001
54.5662 40.421101 3.5588 0.050000001
56.0541 34.363499 5.7522998 0.050000001
51.8545 38.3843 7.9215002 0.050000001
55.581402 34.060299 10.3247 0.050000001
58.727001 43.3606 0 0.050000001
58.014099 35.453602 1.1868 0.050000001
54.6367 40.325802 3.5588 0.050000001
56.102001 34.285198 5.7522998 0.050000001
51.921398 38.2938 7.9215002 0.050000001
54.791901 33.458199 10.1682 0.050000001
0 0 -0 0.050000001
58.787498 43.2785 0 0.050000001
58.069698 35.362499 1.1868 0.050000001
53.8955 39.648201 3.5065 0.050000001
56.1618 34.187199 5.7522998 0.050000001
51.175201 37.633202 7.7996001 0.050000001
54.8386 33.381699 10.1682 0.050000001
58.8629 43.1759 0 0.050000001
58.118999 35.281399 1.1868 0.050000001
53.957699 39.563499 3.5065 0.050000001
57.0611 34.6255 5.8393998 0.050000001
52.0415 38.130501 7.9215002 0.050000001
55.741299 33.798 10.3247 0.050000001
0 0 -0 0.050000001
59.806499 43.5797 0 0.050000001
58.2295 35.098598 1.1868 0.050000001
54.074902 39.403198 3.5065 0.050000001
57.175598 34.4361 5.8393998 0.050000001
52.1544 37.975899 7.9215002 0.050000001
55.000999 33.1133 10.1682 0.050000001
0 0 -0 0.050000001
59.065701 42.897999 0 0.050000001
57.433498 34.482201 1.1693 0.050000001
54.951698 39.895401 3.5588 0.050000001
58.077801 34.868999 5.9266 0.050000001
52.2206 37.8848 7.9215002 0.050000001
55.053001 33.026901 10.1682 0.050000001
58.315601 42.229 0 0.050000001
58.3456 34.9053 1.1868 0.050000001
54.205299 39.223598 3.5065 0.050000001
58.1385 34.767601 5.9266 0.050000001
52.273399 37.811901 7.9215002 0.050000001
55.099098 32.950001 10.1682 0.050000001
0 0 -0 0.050000001
59.200199 42.7122 0 0.050000001
58.394299 34.823799 1.1868 0.050000001
54.2668 39.1385 3.5065 0.050000001
57.331299 34.1763 5.8393998 0.050000001
53.1446 38.3009 8.0433998 0.050000001
55.156502 32.853802 10.1682 0.050000001
0 0 -0 0.050000001
59.2598 42.629501 0 0.050000001
58.455002 34.721802 1.1868 0.050000001
54.328201 39.0532 3.5065 0.050000001
57.384899 34.086201 5.8393998 0.050000001
52.391998 37.647499 7.9215002 0.050000001
55.202301 32.776699 10.1682 0.050000001
0 0 -0 0.050000001
59.334099 42.526001 0 0.050000001
57.643101 34.130798 1.1693 0.050000001
54.396301 38.958302 3.5065 0.050000001
57.444302 33.986 5.8393998 0.050000001
53.257999 38.143002 8.0433998 0.050000001
55.259399 32.680302 10.1682 0.050000001
0 0 -0 0.050000001
59.400799 42.4328 0 0.050000001
57.702599 34.030102 1.1693 0.050000001
52.825199 37.7216 3.4017999 0.050000001
57.491699 33.9058 5.8393998 0.050000001
51.708599 36.896999 7.7996001 0.050000001
55.310699 32.593498 10.1682 0.050000001
58.660099 41.749199 0 0.050000001
59.48 34.952499 1.2042 0.050000001
54.5116 38.7967 3.5065 0.050000001
57.5508 33.805401 5.8393998 0.050000001
52.568802 37.400101 7.9215002 0.050000001
55.361801 32.506599 10.1682 0.050000001
0 0 -0 0.050000001
59.533798 42.245998 0 0.050000001
58.672001 34.353901 1.1868 0.050000001
54.572498 38.710999 3.5065 0.050000001
56.7383 33.2216 5.7522998 0.050000001
51.8242 36.734402 7.7996001 0.050000001
55.4128 32.419601 10.1682 0.050000001
58.031601 40.906399 0 0.050000001
57.909401 33.676998 1.1693 0.050000001
54.7006 38.5299 3.5065 0.050000001
58.570801 34.034302 5.9266 0.050000001
52.7509 37.142799 7.9215002 0.050000001
55.5144 32.2453 10.1682 0.050000001
58.9212 41.379799 0 0.050000001
57.967999 33.575901 1.1693 0.050000001
53.937099 37.879501 3.4542 0.050000001
57.767899 33.432999 5.8393998 0.050000001
52.8092 37.059898 7.9215002 0.050000001
55.570599 32.148399 10.1682 0.050000001
0 0 -0 0.050000001
59.805401 41.8606 0 0.050000001
58.8867 33.984501 1.1868 0.050000001
54.003101 37.785301 3.4542 0.050000001
57.814602 33.352299 5.8393998 0.050000001
52.047699 36.417099 7.7996001 0.050000001
55.615398 32.070801 10.1682 0.050000001
58.223701 40.6325 0 0.050000001
58.0732 33.3936 1.1693 0.050000001
54.055801 37.7099 3.4542 0.050000001
57.0089 32.7551 5.7522998 0.050000001
52.111198 36.326199 7.7996001 0.050000001
55.665699 31.9834 10.1682 0.050000001
0 0 -0 0.050000001
59.115601 41.1017 0 0.050000001
58.125599 33.302299 1.1693 0.050000001
54.934898 38.195 3.5065 0.050000001
57.0546 32.675499 5.7522998 0.050000001
52.976898 36.819901 7.9215002 0.050000001
54.864201 31.395599 10.0118 0.050000001
58.351101 40.449402 0 0.050000001
59.040298 33.716999 1.1868 0.050000001
55.001499 38.099098 3.5065 0.050000001
57.105801 32.5858 5.7522998 0.050000001
52.224998 36.1623 7.7996001 0.050000001
55.7659 31.8083 10.1682 0.050000001
0 0 -0 0.050000001
58.414501 40.3577 0 0.050000001
58.23 33.119598 1.1693 0.050000001
53.411201 36.887199 3.4017999 0.050000001
57.162601 32.486099 5.7522998 0.050000001
53.098701 36.644001 7.9215002 0.050000001
54.9571 31.2327 10.0118 0.050000001
59.308601 40.822701 0 0.050000001
60.021702 34.014 1.2042 0.050000001
55.1143 37.935699 3.5065 0.050000001
58.074699 32.897202 5.8393998 0.050000001
52.3321 36.007198 7.7996001 0.050000001
55.865601 31.632999 10.1682 0.050000001
59.365501 40.739799 0 0.050000001
59.198502 33.4384 1.1868 0.050000001
55.173801 37.849098 3.5065 0.050000001
58.120602 32.816101 5.8393998 0.050000001
52.394798 35.915798 7.7996001 0.050000001
55.915199 31.5452 10.1682 0.050000001
0 0 -0 0.050000001
58.666901 39.989899 0 0.050000001
59.303299 33.252201 1.1868 0.050000001
55.299 37.665901 3.5065 0.050000001
59.098202 33.1101 5.9266 0.050000001
52.501202 35.760201 7.7996001 0.050000001
56.875801 31.851999 10.3247 0.050000001
58.729698 39.897701 0 0.050000001
58.4883 32.661201 1.1693 0.050000001
54.525398 37.027599 3.4542 0.050000001
59.155899 33.006901 5.9266 0.050000001
52.563499 35.668499 7.7996001 0.050000001
56.063202 31.2813 10.1682 0.050000001
0 0 -0 0.050000001
58.799198 39.795101 0 0.050000001
58.539501 32.569302 1.1693 0.050000001
54.59 36.9324 3.4542 0.050000001
58.331299 32.440102 5.8393998 0.050000001
52.6133 35.5951 7.7996001 0.050000001
55.249001 30.713301 10.0118 0.050000001
58.854698 39.713001 0 0.050000001
58.590599 32.477299 1.1693 0.050000001
55.469398 37.4146 3.5065 0.050000001
59.247799 32.841599 5.9266 0.050000001
52.675301 35.503201 7.7996001 0.050000001
55.297199 30.626499 10.0118 0.050000001
0 0 -0 0.050000001
58.924 39.610199 0 0.050000001
57.7663 31.901899 1.1519001 0.050000001
53.870499 36.2132 3.4017999 0.050000001
59.305099 32.738098 5.9266 0.050000001
52.7248 35.4296 7.7996001 0.050000001
55.339901 30.549299 10.0118 0.050000001
0 0 -0 0.050000001
58.979198 39.527901 0 0.050000001
57.810799 31.821199 1.1519001 0.050000001
55.593201 37.2304 3.5065 0.050000001
58.483501 32.164902 5.8393998 0.050000001
52.780399 35.346802 7.7996001 0.050000001
56.258701 30.928499 10.1682 0.050000001
0 0 -0 0.050000001
60.704399 40.546001 0 0.050000001
56.989498 31.239599 1.1344 0.050000001
54.814602 36.598301 3.4542 0.050000001
59.4133 32.541302 5.9266 0.050000001
52.841999 35.254601 7.7996001 0.050000001
57.173401 31.314501 10.3247 0.050000001
59.942501 39.886002 0 0.050000001
58.793499 32.108501 1.1693 0.050000001
55.7034 37.0653 3.5065 0.050000001
57.7099 31.5037 5.7522998 0.050000001
52.891201 35.180801 7.7996001 0.050000001
56.355499 30.7516 10.1682 0.050000001
0 0 -0 0.050000001
59.164799 39.2495 0 0.050000001
57.081902 31.0704 1.1344 0.050000001
54.929298 36.4259 3.4542 0.050000001
59.503899 32.375301 5.9266 0.050000001
52.125099 34.5401 7.6778002 0.050000001
56.403801 30.663 10.1682 0.050000001
57.617802 37.9631 0 0.050000001
57.179199 30.8909 1.1344 0.050000001
54.215698 35.694401 3.4017999 0.050000001
59.611 32.177799 5.9266 0.050000001
53.0625 34.921902 7.7996001 0.050000001
56.499802 30.485701 10.1682 0.050000001
0 0 -0 0.050000001
59.349098 38.970299 0 0.050000001
57.233101 30.7911 1.1344 0.050000001
55.1003 36.166599 3.4542 0.050000001
59.667 32.0737 5.9266 0.050000001
52.2873 34.294102 7.6778002 0.050000001
56.547699 30.3969 10.1682 0.050000001
59.417099 38.8666 0 0.050000001
57.281399 30.701099 1.1344 0.050000001
55.999199 36.616901 3.5065 0.050000001
59.7118 31.990299 5.9266 0.050000001
53.165901 34.764301 7.7996001 0.050000001
56.595299 30.308001 10.1682 0.050000001
0 0 -0 0.050000001
59.471298 38.7836 0 0.050000001
57.329498 30.611099 1.1344 0.050000001
56.050201 36.5387 3.5065 0.050000001
60.635101 32.376099 6.0137 0.050000001
53.226501 34.671398 7.7996001 0.050000001
56.642899 30.219101 10.1682 0.050000001
59.538898 38.679798 0 0.050000001
56.494801 30.0515 1.117 0.050000001
56.107601 36.4506 3.5065 0.050000001
59.812 31.802601 5.9266 0.050000001
52.442402 34.056499 7.6778002 0.050000001
58.439999 31.0469 10.4811 0.050000001
60.432098 39.140202 0 0.050000001
57.420101 30.440901 1.1344 0.050000001
56.171101 36.3526 3.5065 0.050000001
58.981499 31.2423 5.8393998 0.050000001
52.501801 33.964901 7.6778002 0.050000001
56.737499 30.041 10.1682 0.050000001
60.493599 39.0452 0 0.050000001
56.588902 29.8738 1.117 0.050000001
55.382702 35.7327 3.4542 0.050000001
59.035999 31.139299 5.8393998 0.050000001
52.555099 33.882401 7.6778002 0.050000001
56.784599 29.951799 10.1682 0.050000001
60.5616 38.939602 0 0.050000001
56.635799 29.784901 1.117 0.050000001
56.285 36.175999 3.5065 0.050000001
58.197601 30.5933 5.7522998 0.050000001
52.602299 33.808998 7.6778002 0.050000001
56.8316 29.8626 10.1682 0.050000001
59.773998 38.3153 0 0.050000001
56.682499 29.6959 1.117 0.050000001
56.335499 36.097301 3.5065 0.050000001
57.3578 30.0497 5.6651001 0.050000001
52.661201 33.717098 7.6778002 0.050000001
56.878502 29.7733 10.1682 0.050000001
61.581299 39.201401 0 0.050000001
55.883301 29.0662 1.0994999 0.050000001
56.454899 35.910301 3.5065 0.050000001
58.341099 30.318701 5.7522998 0.050000001
52.766899 33.551498 7.6778002 0.050000001
56.971699 29.5944 10.1682 0.050000001
60.798302 38.568901 0 0.050000001
56.8218 29.428499 1.117 0.050000001
55.661598 35.2967 3.4542 0.050000001
57.509201 29.759001 5.6651001 0.050000001
52.8195 33.468601 7.6778002 0.050000001
57.018101 29.5049 10.1682 0.050000001
60.865601 38.4627 0 0.050000001
55.979401 28.8808 1.0994999 0.050000001
56.567402 35.7328 3.5065 0.050000001
58.4361 30.1353 5.7522998 0.050000001
52.866199 33.394798 7.6778002 0.050000001
57.942299 29.867901 10.3247 0.050000001
61.765301 38.910702 0 0.050000001
56.0247 28.792801 1.0994999 0.050000001
56.617199 35.653801 3.5065 0.050000001
58.488602 30.033199 5.7522998 0.050000001
52.9244 33.302502 7.6778002 0.050000001
57.1105 29.3256 10.1682 0.050000001
60.986099 38.271301 0 0.050000001
56.069901 28.7047 1.0994999 0.050000001
56.679401 35.554901 3.5065 0.050000001
57.6436 29.4977 5.6651001 0.050000001
52.970901 33.2286 7.6778002 0.050000001
57.161598 29.225901 10.1682 0.050000001
0 0 -0 0.050000001
59.343899 37.125401 0 0.050000001
56.1199 28.6068 1.0994999 0.050000001
56.735199 35.465801 3.5065 0.050000001
57.689899 29.4072 5.6651001 0.050000001
53.028801 33.136101 7.6778002 0.050000001
58.082401 29.5945 10.3247 0.050000001
60.257301 37.550701 0 0.050000001
56.159801 28.5285 1.0994999 0.050000001
56.784599 35.3866 3.5065 0.050000001
58.629501 29.757299 5.7522998 0.050000001
53.080799 33.0527 7.6778002 0.050000001
57.253201 29.0462 10.1682 0.050000001
0 0 -0 0.050000001
60.3162 37.456001 0 0.050000001
57.0966 28.8916 1.117 0.050000001
55.997898 34.7607 3.4542 0.050000001
58.671001 29.6754 5.7522998 0.050000001
53.1269 32.9786 7.6778002 0.050000001
57.293701 28.9662 10.1682 0.050000001
61.2187 37.898102 0 0.050000001
55.3563 27.901899 1.082 0.050000001
56.046299 34.682499 3.4542 0.050000001
57.832901 29.124901 5.6651001 0.050000001
53.184399 32.885799 7.6778002 0.050000001
57.3391 28.8762 10.1682 0.050000001
59.633701 36.658199 0 0.050000001
55.448502 27.7181 1.082 0.050000001
57.012001 35.0191 3.5065 0.050000001
57.919102 28.953199 5.6651001 0.050000001
53.287399 32.718601 7.6778002 0.050000001
57.429501 28.6959 10.1682 0.050000001
59.697601 36.5541 0 0.050000001
55.487099 27.640699 1.082 0.050000001
57.924801 35.4408 3.5588 0.050000001
57.969501 28.851999 5.6651001 0.050000001
53.338699 32.6348 7.6778002 0.050000001
57.4795 28.5956 10.1682 0.050000001
60.608601 36.981098 0 0.050000001
55.535301 27.5438 1.082 0.050000001
57.1217 34.839901 3.5065 0.050000001
58.0098 28.771099 5.6651001 0.050000001
53.3899 32.550999 7.6778002 0.050000001
57.519402 28.5154 10.1682 0.050000001
0 0 -0 0.050000001
59.812099 36.366299 0 0.050000001
55.5737 27.4662 1.082 0.050000001
56.317001 34.241299 3.4542 0.050000001
58.059898 28.6698 5.6651001 0.050000001
53.441002 32.467098 7.6778002 0.050000001
58.4548 28.8521 10.3247 0.050000001
59.869202 36.272301 0 0.050000001
55.616798 27.378901 1.082 0.050000001
58.085098 35.177601 3.5588 0.050000001
58.993698 29.0285 5.7522998 0.050000001
53.486301 32.392399 7.6778002 0.050000001
57.613602 28.324499 10.1682 0.050000001
59.9198 36.188702 0 0.050000001
56.562302 27.7218 1.0994999 0.050000001
57.285198 34.570301 3.5065 0.050000001
59.0392 28.935801 5.7522998 0.050000001
53.542702 32.299 7.6778002 0.050000001
57.653099 28.243999 10.1682 0.050000001
59.1259 35.5686 0 0.050000001
55.702499 27.204 1.082 0.050000001
58.201401 34.984798 3.5588 0.050000001
59.0896 28.832701 5.7522998 0.050000001
54.444099 32.7262 7.7996001 0.050000001
57.702301 28.143299 10.1682 0.050000001
58.324001 34.961498 0 0.050000001
56.644299 27.5539 1.0994999 0.050000001
57.3936 34.390202 3.5065 0.050000001
59.129799 28.7502 5.7522998 0.050000001
53.643902 32.130699 7.6778002 0.050000001
57.7416 28.0627 10.1682 0.050000001
59.2374 35.382702 0 0.050000001
55.787701 27.0289 1.082 0.050000001
56.584202 33.797901 3.4542 0.050000001
57.3866 27.778799 5.5780001 0.050000001
53.694302 32.046398 7.6778002 0.050000001
56.901402 27.5317 10.0118 0.050000001
60.202099 35.716999 0 0.050000001
56.778301 27.276699 1.0994999 0.050000001
57.555 34.119301 3.5065 0.050000001
58.366699 28.039801 5.6651001 0.050000001
54.648602 32.383499 7.7996001 0.050000001
57.873199 27.7903 10.1682 0.050000001
0 0 -0 0.050000001
60.2644 35.6119 0 0.050000001
56.816299 27.197399 1.0994999 0.050000001
56.754501 33.511101 3.4542 0.050000001
59.314301 28.367701 5.7522998 0.050000001
53.844799 31.792999 7.6778002 0.050000001
57.9216 27.689301 10.1682 0.050000001
59.4585 35.0098 0 0.050000001
55.956402 26.6779 1.082 0.050000001
56.8013 33.431801 3.4542 0.050000001
58.454498 27.8563 5.6651001 0.050000001
53.8946 31.708401 7.6778002 0.050000001
58.851898 28.0331 10.3247 0.050000001
59.513401 34.916302 0 0.050000001
56.901501 27.018801 1.0994999 0.050000001
57.709202 33.8578 3.5065 0.050000001
58.503101 27.754299 5.6651001 0.050000001
53.0881 31.1217 7.5559001 0.050000001
59.793201 28.3535 10.4811 0.050000001
0 0 -0 0.050000001
59.568199 34.8228 0 0.050000001
56.943802 26.929399 1.0994999 0.050000001
56.905998 33.253201 3.4542 0.050000001
58.541698 27.6726 5.6651001 0.050000001
53.9995 31.529499 7.6778002 0.050000001
58.051399 27.416 10.1682 0.050000001
59.616798 34.739601 0 0.050000001
56.9907 26.83 1.0994999 0.050000001
57.821201 33.666199 3.5065 0.050000001
59.491299 27.994499 5.7522998 0.050000001
54.043499 31.454 7.6778002 0.050000001
57.205399 26.8944 10.0118 0.050000001
0 0 -0 0.050000001
60.542198 35.137501 0 0.050000001
56.122898 26.325701 1.082 0.050000001
57.015999 33.064301 3.4542 0.050000001
59.535198 27.900999 5.7522998 0.050000001
54.098301 31.359699 7.6778002 0.050000001
58.137299 27.2335 10.1682 0.050000001
58.000301 33.540501 0 0.050000001
57.074699 26.650801 1.0994999 0.050000001
57.062099 32.984699 3.4542 0.050000001
59.5741 27.8179 5.7522998 0.050000001
54.141998 31.2841 7.6778002 0.050000001
57.280201 26.7346 10.0118 0.050000001
56.32 32.450901 0 0.050000001
55.298801 25.727501 1.0646 0.050000001
57.9734 33.4035 3.5065 0.050000001
59.622601 27.7138 5.7522998 0.050000001
54.191101 31.198999 7.6778002 0.050000001
58.222599 27.050699 10.1682 0.050000001
56.416 32.2836 0 0.050000001
56.291801 25.962799 1.082 0.050000001
58.083801 33.211102 3.5065 0.050000001
58.804699 27.109301 5.6651001 0.050000001
54.288799 31.028601 7.6778002 0.050000001
58.311901 26.8575 10.1682 0.050000001
0 0 -0 0.050000001
56.472301 32.185101 0 0.050000001
56.327999 25.884199 1.082 0.050000001
56.406101 32.1213 3.4017999 0.050000001
58.847198 27.016899 5.6651001 0.050000001
54.342899 30.9338 7.6778002 0.050000001
58.3494 26.775999 10.1682 0.050000001
58.261902 33.0839 0 0.050000001
57.282299 26.2017 1.0994999 0.050000001
58.187901 33.0284 3.5065 0.050000001
58.884899 26.9347 5.6651001 0.050000001
55.249298 31.3477 7.7996001 0.050000001
59.285 27.1052 10.3247 0.050000001
57.443501 32.5 0 0.050000001
57.318802 26.1217 1.0994999 0.050000001
59.1147 33.418301 3.5588 0.050000001
58.931801 26.8319 5.6651001 0.050000001
54.434399 30.7724 7.6778002 0.050000001
58.433201 26.5926 10.1682 0.050000001
0 0 -0 0.050000001
0 0 -0 0.050000001
57.494499 32.409698 0 0.050000001
57.359798 26.031601 1.0994999 0.050000001
57.421299 32.355202 3.4542 0.050000001
58.9692 26.749599 5.6651001 0.050000001
55.353001 31.164301 7.7996001 0.050000001
58.474899 26.500799 10.1682 0.050000001
0 0 -0 0.050000001
0 0 -0 0.050000001
0 0 -0 0.050000001
57.5397 32.329399 0 0.050000001
56.4939 25.519899 1.082 0.050000001
57.472099 32.264999 3.4542 0.050000001
59.0158 26.646601 5.6651001 0.050000001
55.3964 31.087 7.7996001 0.050000001
59.421398 26.8048 10.3247 0.050000001
0 0 -0 0.050000001
0 0 -0 0.050000001
0 0 -0 0.050000001
56.723301 31.740601 0 0.050000001
56.529499 25.441 1.082 0.050000001
59.271599 33.139301 3.5588 0.050000001
59.057598 26.5539 5.6651001 0.050000001
55.4506 30.990299 7.7996001 0.050000001
58.557899 26.316999 10.1682 0.050000001
0 0 -0 0.050000001
0 0 -0 0.050000001
56.773102 31.6514 0 0.050000001
57.486301 25.750999 1.0994999 0.050000001
59.317799 33.056499 3.5588 0.050000001
59.099201 26.4611 5.6651001 0.050000001
54.626701 30.4298 7.6778002 0.050000001
59.495998 26.6388 10.3247 0.050000001
0 0 -0 0.050000001
0 0 -0 0.050000001
55.948601 31.0767 0 0.050000001
57.522202 25.6707 1.0994999 0.050000001
57.629101 31.983801 3.4542 0.050000001
59.140701 26.3682 5.6651001 0.050000001
56.410099 31.307301 7.9215002 0.050000001
58.640301 26.1329 10.1682 0.050000001
0 0 -0 0.050000001
0 0 -0 0.050000001
55.164902 30.4275 0 0.050000001
58.5214 25.8843 1.117 0.050000001
56.849098 31.330601 3.4017999 0.050000001
60.134399 26.5851 5.7522998 0.050000001
56.508202 31.1299 7.9215002 0.050000001
59.6301 26.337299 10.3247 0.050000001
0 0 -0 0.050000001
0 0 -0 0.050000001
55.217899 30.3312 0 0.050000001
57.642502 25.399401 1.0994999 0.050000001
56.903702 31.2314 3.4017999 0.050000001
59.264301 26.0893 5.6651001 0.050000001
55.686901 30.563499 7.7996001 0.050000001
58.762798 25.856199 10.1682 0.050000001
0 0 -0 0.050000001
0 0 -0 0.050000001
0 0 -0 0.050000001
57.019901 31.204599 0 0.050000001
57.6824 25.3088 1.0994999 0.050000001
56.947201 31.151899 3.4017999 0.050000001
59.300701 26.0065 5.6651001 0.050000001
56.605701 30.9522 7.9215002 0.050000001
59.7034 26.1707 10.3247 0.050000001
0 0 -0 0.050000001
0 0 -0 0.050000001
57.068901 31.115 0 0.050000001
58.638302 25.618401 1.117 0.050000001
56.9907 31.0723 3.4017999 0.050000001
60.258999 26.3015 5.7522998 0.050000001
55.7827 30.3885 7.7996001 0.050000001
59.749001 26.066401 10.3247 0.050000001
0 0 -0 0.050000001
57.117699 31.025299 0 0.050000001
57.7616 25.127399 1.0994999 0.050000001
56.167198 30.4963 3.3494999 0.050000001
60.295601 26.2173 5.7522998 0.050000001
56.708099 30.764299 7.9215002 0.050000001
59.789902 25.972601 10.3247 0.050000001
0 0 -0 0.050000001
57.160999 30.945499 0 0.050000001
57.805401 25.0266 1.0994999 0.050000001
57.093399 30.8832 3.4017999 0.050000001
60.341301 26.112 5.7522998 0.050000001
55.877899 30.2131 7.7996001 0.050000001
60.732498 26.2813 10.4811 0.050000001
0 0 -0 0.050000001
0 0 -0 0.050000001
58.0951 31.3202 0 0.050000001
57.840302 24.9459 1.0994999 0.050000001
56.268002 30.3099 3.3494999 0.050000001
60.382301 26.0172 5.7522998 0.050000001
56.804401 30.586 7.9215002 0.050000001
60.778301 26.175301 10.4811 0.050000001
0 0 -0 0.050000001
0 0 -0 0.050000001
57.263302 30.7558 0 0.050000001
58.802502 25.239201 1.117 0.050000001
57.190102 30.703699 3.4017999 0.050000001
59.503101 25.5399 5.6651001 0.050000001
56.847099 30.506701 7.9215002 0.050000001
60.8148 26.090401 10.4811 0.050000001
0 0 -0 0.050000001
56.429798 30.194 0 0.050000001
57.918301 24.764 1.0994999 0.050000001
58.124298 31.0746 3.4542 0.050000001
59.5476 25.4361 5.6651001 0.050000001
56.894901 30.4174 7.9215002 0.050000001
59.9519 25.596399 10.3247 0.050000001
0 0 -0 0.050000001
56.5191 30.026501 0 0.050000001
58.920799 24.961901 1.117 0.050000001
57.334202 30.4338 3.4017999 0.050000001
60.544498 25.6373 5.7522998 0.050000001
56.9902 30.238501 7.9215002 0.050000001
60.946098 25.7822 10.4811 0.050000001
0 0 -0 0.050000001
56.571499 29.927799 0 0.050000001
58.955601 24.879601 1.117 0.050000001
57.387199 30.3337 3.4017999 0.050000001
60.584702 25.5422 5.7522998 0.050000001
56.165298 29.675301 7.7996001 0.050000001
60.0718 25.313601 10.3247 0.050000001
0 0 -0 0.050000001
56.618401 29.8389 0 0.050000001
58.077099 24.3895 1.0994999 0.050000001
57.429501 30.2535 3.4017999 0.050000001
61.543301 25.8325 5.8393998 0.050000001
56.206699 29.5968 7.7996001 0.050000001
59.1964 24.847401 10.1682 0.050000001
0 0 -0 0.050000001
0 0 -0 0.050000001
56.665199 29.749901 0 0.050000001
59.033401 24.694201 1.117 0.050000001
56.5979 29.6894 3.3494999 0.050000001
61.583801 25.7358 5.8393998 0.050000001
56.258301 29.498699 7.7996001 0.050000001
59.2397 24.744101 10.1682 0.050000001
0 0 -0 0.050000001
0 0 -0 0.050000001
56.711899 29.660801 0 0.050000001
58.1534 24.2069 1.0994999 0.050000001
56.639301 29.6103 3.3494999 0.050000001
62.539398 26.0326 5.9266 0.050000001
56.304501 29.410299 7.7996001 0.050000001
58.366501 24.2717 10.0118 0.050000001
0 0 -0 0.050000001
0 0 -0 0.050000001
56.7635 29.5618 0 0.050000001
59.115002 24.498301 1.117 0.050000001
56.690899 29.5114 3.3494999 0.050000001
61.664398 25.5422 5.8393998 0.050000001
56.345501 29.3316 7.7996001 0.050000001
58.408798 24.1698 10.0118 0.050000001
0 0 -0 0.050000001
0 0 -0 0.050000001
55.917198 29.0219 0 0.050000001
60.082001 24.7763 1.1344 0.050000001
55.8507 28.962601 3.2972 0.050000001
60.783501 25.0655 5.7522998 0.050000001
55.515499 28.776501 7.6778002 0.050000001
58.442501 24.0882 10.0118 0.050000001
0 0 -0 0.050000001
0 0 -0 0.050000001
0 0 -0 0.050000001
55.967701 28.9242 0 0.050000001
58.2668 23.9326 1.0994999 0.050000001
55.890999 28.8846 3.2972 0.050000001
60.8228 24.969999 5.7522998 0.050000001
55.555599 28.6989 7.6778002 0.050000001
58.484402 23.9862 10.0118 0.050000001
0 0 -0 0.050000001
0 0 -0 0.050000001
56.897099 29.3039 0 0.050000001
59.234001 24.209101 1.117 0.050000001
55.941399 28.787001 3.2972 0.050000001
60.8619 24.8745 5.7522998 0.050000001
55.605598 28.6019 7.6778002 0.050000001
57.6035 23.531 9.8554001 0.050000001
0 0 -0 0.050000001
0 0 -0 0.050000001
57.884499 29.57 0 0.050000001
59.305599 24.0333 1.117 0.050000001
56.031502 28.611099 3.2972 0.050000001
59.093102 23.9352 5.5780001 0.050000001
55.690201 28.4368 7.6778002 0.050000001
59.512402 24.080799 10.1682 0.050000001
0 0 -0 0.050000001
0 0 -0 0.050000001
0 0 -0 0.050000001
57.034599 29.0355 0 0.050000001
58.420101 23.555799 1.0994999 0.050000001
56.966499 28.9758 3.3494999 0.050000001
60.054501 24.214899 5.6651001 0.050000001
55.739799 28.3396 7.6778002 0.050000001
59.545898 23.9977 10.1682 0.050000001
0 0 -0 0.050000001
0 0 -0 0.050000001
57.085098 28.9359 0 0.050000001
58.452999 23.474199 1.0994999 0.050000001
56.116199 28.4447 3.2972 0.050000001
61.016998 24.4916 5.7522998 0.050000001
55.779301 28.2617 7.6778002 0.050000001
60.495998 24.2824 10.3247 0.050000001
0 0 -0 0.050000001
0 0 -0 0.050000001
57.1255 28.856199 0 0.050000001
57.5574 23.021299 1.082 0.050000001
56.165699 28.3468 3.2972 0.050000001
61.055401 24.3957 5.7522998 0.050000001
54.942299 27.7173 7.5559001 0.050000001
57.786499 23.0779 9.8554001 0.050000001
0 0 -0 0.050000001
0 0 -0 0.050000001
57.1707 28.766399 0 0.050000001
58.526402 23.290501 1.0994999 0.050000001
56.205299 28.268299 3.2972 0.050000001
62.023602 24.657101 5.8393998 0.050000001
55.8727 28.076599 7.6778002 0.050000001
58.740501 23.3519 10.0118 0.050000001
0 0 -0 0.050000001
0 0 -0 0.050000001
57.220901 28.666599 0 0.050000001
57.6334 22.830299 1.082 0.050000001
57.1474 28.6173 3.3494999 0.050000001
62.057999 24.570499 5.8393998 0.050000001
55.9216 27.979 7.6778002 0.050000001
58.7812 23.249399 10.0118 0.050000001
0 0 -0 0.050000001
0 0 -0 0.050000001
0 0 -0 0.050000001
56.3661 28.139999 0 0.050000001
57.6731 22.7297 1.082 0.050000001
57.192299 28.5275 3.3494999 0.050000001
62.1008 24.462099 5.8393998 0.050000001
55.960602 27.9009 7.6778002 0.050000001
57.8946 22.8053 9.8554001 0.050000001
0 0 -0 0.050000001
0 0 -0 0.050000001
0 0 -0 0.050000001
56.415199 28.041599 0 0.050000001
58.635502 23.0144 1.0994999 0.050000001
56.337898 28.003099 3.2972 0.050000001
60.280102 23.6478 5.6651001 0.050000001
55.9995 27.8228 7.6778002 0.050000001
60.6931 23.7854 10.3247 0.050000001
0 0 -0 0.050000001
0 0 -0 0.050000001
0 0 -0 0.050000001
56.4543 27.962799 0 0.050000001
58.675598 22.9121 1.0994999 0.050000001
56.3866 27.9048 3.2972 0.050000001
60.3172 23.553101 5.6651001 0.050000001
56.048 27.725 7.6778002 0.050000001
59.806198 23.341499 10.1682 0.050000001
0 0 -0 0.050000001
0 0 -0 0.050000001
0 0 -0 0.050000001
0 0 -0 0.050000001
57.444199 28.216299 0 0.050000001
58.743301 22.7379 1.0994999 0.050000001
57.370399 28.167601 3.3494999 0.050000001
61.319901 23.7229 5.7522998 0.050000001
56.130001 27.558599 7.6778002 0.050000001
58.962002 22.787001 10.0118 0.050000001
0 0 -0 0.050000001
0 0 -0 0.050000001
0 0 -0 0.050000001
56.5854 27.6964 0 0.050000001
58.782902 22.6353 1.0994999 0.050000001
57.4146 28.0774 3.3494999 0.050000001
60.431499 23.257999 5.6651001 0.050000001
56.178001 27.4606 7.6778002 0.050000001
61.759102 23.7689 10.4811 0.050000001
0 0 -0 0.050000001
0 0 -0 0.050000001
0 0 -0 0.050000001
0 0 -0 0.050000001
56.633701 27.597601 0 0.050000001
58.814499 22.5532 1.0994999 0.050000001
56.560902 27.5499 3.2972 0.050000001
61.394199 23.5301 5.7522998 0.050000001
56.216301 27.382099 7.6778002 0.050000001
61.800499 23.6611 10.4811 0.050000001
0 0 -0 0.050000001
0 0 -0 0.050000001
0 0 -0 0.050000001
0 0 -0 0.050000001
57.571701 27.955299 0 0.050000001
57.919601 22.0942 1.082 0.050000001
57.502499 27.8969 3.3494999 0.050000001
62.361801 23.7887 5.8393998 0.050000001
56.264 27.283899 7.6778002 0.050000001
59.987701 22.871099 10.1682 0.050000001
0 0 -0 0.050000001
0 0 -0 0.050000001
0 0 -0 0.050000001
57.615501 27.864799 0 0.050000001
58.884998 22.368299 1.0994999 0.050000001
57.541401 27.816601 3.3494999 0.050000001
63.334599 24.0333 5.9266 0.050000001
56.306801 27.195499 7.6778002 0.050000001
65.564201 24.879299 11.1068 0.050000001
0 0 -0 0.050000001
0 0 -0 0.050000001
0 0 -0 0.050000001
0 0 -0 0.050000001
57.664101 27.7642 0 0.050000001
58.920101 22.275801 1.0994999 0.050000001
56.690102 27.2831 3.2972 0.050000001
64.300003 24.297001 6.0137 0.050000001
56.3447 27.116899 7.6778002 0.050000001
69.303703 26.16 11.7326 0.050000001
0 0 -0 0.050000001
0 0 -0 0.050000001
0 0 -0 0.050000001
56.801201 27.251101 0 0.050000001
58.022999 21.820999 1.082 0.050000001
56.7328 27.194 3.2972 0.050000001
60.608398 22.793301 5.6651001 0.050000001
56.391998 27.018499 7.6778002 0.050000001
73.0383 27.4533 12.3583 0.050000001
0 0 -0 0.050000001
0 0 -0 0.050000001
0 0 -0 0.050000001
57.750999 27.583 0 0.050000001
58.053501 21.74 1.082 0.050000001
57.671902 27.5452 3.3494999 0.050000001
64.375999 24.094801 6.0137 0.050000001
55.533901 26.5121 7.5559001 0.050000001
370.9812 138.70419 62.730202 0.050000001
0 0 -0 0.050000001
0 0 -0 0.050000001
0 0 -0 0.050000001
0 0 -0 0.050000001
57.789501 27.5023 0 0.050000001
57.1544 21.2896 1.0646 0.050000001
57.719898 27.4445 3.3494999 0.050000001
72.815598 27.123301 6.7981 0.050000001
55.580101 26.415199 7.5559001 0.050000001
371.1745 138.1861 62.730202 0.050000001
0 0 -0 0.050000001
0 0 -0 0.050000001
0 0 -0 0.050000001
57.880402 27.310499 0 0.050000001
62.8452 23.1973 1.1693 0.050000001
57.805801 27.263 3.3494999 0.050000001
66.358101 24.480801 6.1880999 0.050000001
55.6674 26.2307 7.5559001 0.050000001
372.5575 137.29601 62.8867 0.050000001
0 0 -0 0.050000001
0 0 -0 0.050000001
0 0 -0 0.050000001
58.823399 27.6551 0 0.050000001
60.069801 22.053801 1.117 0.050000001
56.944698 26.747601 3.2972 0.050000001
374.08859 137.2673 34.862301 0.050000001
56.602402 26.5748 7.6778002 0.050000001
372.74881 136.7757 62.8867 0.050000001
0 0 -0 0.050000001
0 0 -0 0.050000001
0 0 -0 0.050000001
57.0602 26.704599 0 0.050000001
65.735001 24.0296 1.2217 0.050000001
57.886398 27.0914 3.3494999 0.050000001
373.34421 136.403 34.775101 0.050000001
55.740398 26.0751 7.5559001 0.050000001
372.987 136.12489 62.8867 0.050000001
0 0 -0 0.050000001
0 0 -0 0.050000001
58.0037 27.0476 0 0.050000001
67.656197 24.598101 1.2566 0.050000001
57.933601 26.990299 3.3494999 0.050000001
374.51801 136.0914 34.862301 0.050000001
56.6856 26.396799 7.6778002 0.050000001
373.1767 135.604 62.8867 0.050000001
0 0 -0 0.050000001
0 0 -0 0.050000001
57.143799 26.525299 0 0.050000001
371.35721 134.4294 6.8937001 0.050000001
57.971298 26.909401 3.3494999 0.050000001
374.73129 135.5029 34.862301 0.050000001
56.727001 26.307699 7.6778002 0.050000001
373.41281 134.95239 62.8867 0.050000001
0 0 -0 0.050000001
0 0 -0 0.050000001
0 0 -0 0.050000001
59.000801 27.2747 0 0.050000001
371.59131 133.7811 6.8937001 0.050000001
56.205101 25.9704 3.2448001 0.050000001
373.98291 134.64211 34.775101 0.050000001
55.8717 25.7927 7.5559001 0.050000001
373.6243 134.36571 62.8867 0.050000001
0 0 -0 0.050000001
0 0 -0 0.050000001
58.1399 26.753599 0 0.050000001
370.85971 132.86 6.8762002 0.050000001
57.153 26.2995 3.2972 0.050000001
375.15521 134.325 34.862301 0.050000001
55.9077 25.7146 7.5559001 0.050000001
373.8349 133.7787 62.8867 0.050000001
0 0 -0 0.050000001
0 0 -0 0.050000001
58.1772 26.6724 0 0.050000001
371.9866 132.67799 6.8937001 0.050000001
57.194199 26.2097 3.2972 0.050000001
375.34241 133.8011 34.862301 0.050000001
55.9524 25.617001 7.5559001 0.050000001
374.97501 133.5226 63.043098 0.050000001
0 0 -0 0.050000001
0 0 -0 0.050000001
58.214298 26.5912 0 0.050000001
372.21759 132.0285 6.8937001 0.050000001
57.235298 26.119801 3.2972 0.050000001
374.63641 132.8129 34.775101 0.050000001
55.988201 25.5389 7.5559001 0.050000001
375.1611 132.9989 63.043098 0.050000001
0 0 -0 0.050000001
57.391201 25.9855 0 0.050000001
372.6077 130.9236 6.8937001 0.050000001
57.317101 25.939899 3.2972 0.050000001
375.96869 132.03081 34.862301 0.050000001
56.072498 25.3531 7.5559001 0.050000001
375.6001 131.7541 63.043098 0.050000001
0 0 -0 0.050000001
0 0 -0 0.050000001
58.348202 26.2962 0 0.050000001
371.89169 129.94321 6.8762002 0.050000001
59.178699 26.6705 3.4017999 0.050000001
377.1391 131.7029 34.949501 0.050000001
56.107899 25.274799 7.5559001 0.050000001
374.87411 130.8385 62.8867 0.050000001
0 0 -0 0.050000001
0 0 -0 0.050000001
57.472599 25.805099 0 0.050000001
373.01721 129.7523 6.8937001 0.050000001
58.309399 26.1686 3.3494999 0.050000001
377.3226 131.17619 34.949501 0.050000001
57.048698 25.6028 7.6778002 0.050000001
376.01221 130.5735 63.043098 0.050000001
0 0 -0 0.050000001
57.508598 25.7248 0 0.050000001
373.2431 129.1011 6.8937001 0.050000001
57.438702 25.6695 3.2972 0.050000001
376.5867 130.2576 34.862301 0.050000001
56.187 25.0984 7.5559001 0.050000001
376.19409 130.04829 63.043098 0.050000001
0 0 -0 0.050000001
58.462399 26.0413 0 0.050000001
373.423 128.5798 6.8937001 0.050000001
58.386799 25.995501 3.3494999 0.050000001
376.81351 129.6002 34.862301 0.050000001
57.133202 25.4135 7.6778002 0.050000001
376.39789 129.4572 63.043098 0.050000001
0 0 -0 0.050000001
58.507702 25.939301 0 0.050000001
373.62451 127.9931 6.8937001 0.050000001
59.3451 26.2981 3.4017999 0.050000001
376.99411 129.0739 34.862301 0.050000001
57.168701 25.3337 7.6778002 0.050000001
376.62329 128.80009 63.043098 0.050000001
0 0 -0 0.050000001
58.5439 25.857599 0 0.050000001
373.84729 127.3408 6.8937001 0.050000001
58.472698 25.801701 3.3494999 0.050000001
378.1394 128.8028 34.949501 0.050000001
58.120899 25.634399 7.7996001 0.050000001
375.8678 127.9558 62.8867 0.050000001
0 0 -0 0.050000001
0 0 -0 0.050000001
57.6735 25.3529 0 0.050000001
374.97159 127.1398 6.9112 0.050000001
59.422798 26.121901 3.4017999 0.050000001
