# .PCD v0.7 - Point Cloud Data file format
VERSION 0.7
FIELDS x y z rgb
SIZE 4 4 4 4
TYPE F F F F
COUNT 1 1 1 1
WIDTH 782
HEIGHT 1
VIEWPOINT 0 0 0 1 0 0 0
POINTS 782
DATA ascii
19599.361 -30919.424 0 7.0529664e-39
5803.6226 -13296.617 0 7.0529664e-39
-2803.0964 -9711.5557 0 7.0529664e-39
1292.814 -4603.9268 0 7.0529664e-39
1256.0146 -4527.5068 0 7.0529664e-39
1212.7942 -4439.3169 0 7.0529664e-39
1217.1373 -4430.8691 0 7.0529664e-39
1175.9438 -4344.6685 0 7.0529664e-39
1132.1263 -4251.8574 0 7.0529664e-39
1095.0835 -4162.353 0 7.0529664e-39
1051.2859 -4072.8379 0 7.0529664e-39
1010.4828 -3980.2334 0 7.0529664e-39
967.22455 -3887.9956 0 7.0529664e-39
926.77258 -3799.6011 0 7.0529664e-39
882.6217 -3707.7241 0 7.0529664e-39
839.88794 -3617.7861 0 7.0529664e-39
798.30334 -3526.0918 0 7.0529664e-39
811.30048 -3530.9944 0 7.0529664e-39
755.87231 -3425.0847 0 7.0529664e-39
765.35822 -3429.6389 0 7.0529664e-39
708.27185 -3333.5879 0 7.0529664e-39
721.62231 -3334.8171 0 7.0529664e-39
715.70453 -3329.9553 0 7.0529664e-39
669.68445 -3253.7976 0 7.0529664e-39
679.38934 -3249.231 0 7.0529664e-39
624.72034 -3160.8545 0 7.0529664e-39
637.32446 -3159.354 0 7.0529664e-39
578.76562 -3068.9021 0 7.0529664e-39
591.82544 -3069.7151 0 7.0529664e-39
532.68091 -2976.373 0 7.0529664e-39
549.21936 -2978.7856 0 7.0529664e-39
475.4765 -2919.5354 0 7.0529664e-39
402.56009 -2683.9785 0 7.0529664e-39
415.86356 -2680.9297 0 7.0529664e-39
379.41452 -2614.2036 0 7.0529664e-39
329.66626 -2522.2114 0 7.0529664e-39
345.18057 -2517.4373 0 7.0529664e-39
282.5239 -2430.6355 0 7.0529664e-39
1167.5615 -2456.6636 0 7.0529664e-39
1172.2661 -2451.0979 0 7.0529664e-39
298.24707 -2425.5525 0 7.0529664e-39
252.54463 -2326.1855 0 7.0529664e-39
-275.9389 -2253.8242 39.634449 7.0529664e-39
-231.52255 -2257.1431 39.605331 7.0529664e-39
1133.4761 -2283.0554 44.492001 7.0529664e-39
-270.10641 -2248.4895 39.529701 7.0529664e-39
-252.45522 -2244.4832 39.424976 7.0529664e-39
206.76207 -2233.521 0 7.0529664e-39
-62.960526 -2167.8425 37.856236 7.0529664e-39
-44.763302 -2173.208 37.941502 7.0529664e-39
165.31306 -2152.7688 0 7.0529664e-39
1409.2104 -2079.2542 21.889675 7.0529664e-39
121.81519 -2054.2478 0 7.0529664e-39
139.01276 -2052.2969 0 7.0529664e-39
1391.3215 -2035.7921 21.475201 7.0529664e-39
1405.0071 -2066.6292 0 7.0529664e-39
1378.4304 -2009.1455 14.177168 7.0529664e-39
76.685905 -1961.917 0 7.0529664e-39
95.697105 -1958.4103 0 7.0529664e-39
1346.5635 -1941.7867 0 7.0529664e-39
1358.6189 -1968.7087 0 7.0529664e-39
934.44006 -1904.0638 0 7.0529664e-39
1332.7537 -1907.6526 27.103603 7.0529664e-39
32.541977 -1871.5798 0 7.0529664e-39
52.277176 -1868.7639 0 7.0529664e-39
936.06299 -1884.8616 0 7.0529664e-39
1313.7819 -1868.8267 9.9740496 7.0529664e-39
-176.2758 -1805.9167 0 7.0529664e-39
908.98883 -1807.5603 20.182472 7.0529664e-39
1291.3853 -1819.3304 15.612922 7.0529664e-39
-186.71078 -1796.0685 0 7.0529664e-39
-9.6911669 -1790.9636 0 7.0529664e-39
8.6375332 -1788.9727 0 7.0529664e-39
919.29291 -1788.6692 16.228046 7.0529664e-39
1271.4974 -1778.4412 12.833334 7.0529664e-39
1250.9395 -1734.7782 26.714628 7.0529664e-39
-53.030647 -1690.4958 0 7.0529664e-39
-37.257801 -1688.5819 0 7.0529664e-39
1230.0887 -1686.2919 14.590219 7.0529664e-39
1212.4703 -1632.3 17.7229 7.0529664e-39
1222.4882 -1657.4666 20.531517 7.0529664e-39
-96.675591 -1599.8778 0 7.0529664e-39
-78.400589 -1598.6897 0 7.0529664e-39
1194.9844 -1595.6521 17.4175 7.0529664e-39
1166.6754 -1538.7104 0 7.0529664e-39
1174.9497 -1553.5808 16.955002 7.0529664e-39
-193.41898 -1492.0829 26.26236 7.0529664e-39
-139.86641 -1507.021 0 7.0529664e-39
-122.78709 -1506.6549 0 7.0529664e-39
1155.5925 -1511.5657 18.965786 7.0529664e-39
-257.77814 -1442.4214 25.576527 7.0529664e-39
1123.8899 -1444.2201 0 7.0529664e-39
1133.9314 -1465.5703 16.195835 7.0529664e-39
-278.58231 -1411.5409 25.114012 7.0529664e-39
-265.63013 -1434.6414 25.467424 7.0529664e-39
-186.74127 -1406.0472 0 7.0529664e-39
-166.4292 -1415.4727 0 7.0529664e-39
1110.5762 -1414.6266 15.722437 7.0529664e-39
-299.83017 -1372.7462 24.526861 7.0529664e-39
-196.79704 -1382.8959 0 7.0529664e-39
1090.8978 -1371.2777 17.497272 7.0529664e-39
-323.03079 -1323.9365 23.78763 7.0529664e-39
-313.53159 -1346.262 24.127951 7.0529664e-39
-228.3544 -1314.7124 0 7.0529664e-39
-210.34579 -1325.0509 0 7.0529664e-39
1067.8081 -1321.8616 11.091013 7.0529664e-39
1080.5701 -1346.844 30.140301 7.0529664e-39
-338.12564 -1282.7819 23.156164 7.0529664e-39
-239.84605 -1286.2615 0 7.0529664e-39
667.48474 -1274 15.0684 7.0529664e-39
1048.5697 -1278.6729 16.038767 7.0529664e-39
-361.17413 -1217.3582 22.1646 7.0529664e-39
-352.57635 -1240.0911 22.504091 7.0529664e-39
-270.86975 -1220.8108 0 7.0529664e-39
-255.69724 -1232.6559 0 7.0529664e-39
669.05762 -1255.4755 11.283772 7.0529664e-39
687.30066 -1242.3785 12.886865 7.0529664e-39
1025.6816 -1229.4087 9.3137665 7.0529664e-39
1036.6001 -1251.9216 14.1888 7.0529664e-39
-369.17523 -1191.7488 21.777693 7.0529664e-39
-280.896 -1196.9606 0 7.0529664e-39
1010.4263 -1196.8417 0 7.0529664e-39
-954.71997 -1132.5533 25.855751 7.0529664e-39
-941.68018 -1127.834 25.646301 7.0529664e-39
-385.19632 -1146.4678 21.111595 7.0529664e-39
-299.60468 -1140.7092 0 7.0529664e-39
962.92633 -1134.9115 20.213766 7.0529664e-39
-916.66028 -1116.1791 25.21126 7.0529664e-39
-876.28705 -1097.9528 24.520641 7.0529664e-39
-845.79614 -1083.8231 23.997049 7.0529664e-39
-408.82306 -1089.1877 20.307114 7.0529664e-39
-399.49664 -1111.2921 20.613234 7.0529664e-39
-324.09973 -1103.4218 0 7.0529664e-39
940.8645 -1080.0543 12.50465 7.0529664e-39
952.81879 -1103.4507 11.283956 7.0529664e-39
-2500.9292 -1077.0684 0 7.0529664e-39
-828.3266 -1057.6527 10.118657 7.0529664e-39
-786.04919 -1058.5773 23.014975 7.0529664e-39
-747.39136 -1040.8223 22.366489 7.0529664e-39
-421.00613 -1057.1007 19.861938 7.0529664e-39
-342.2193 -1049.8212 0 7.0529664e-39
931.2713 -1056.8134 12.31093 7.0529664e-39
-739.91455 -1011.0762 4.4131269 7.0529664e-39
-702.19287 -1014.7111 17.273235 7.0529664e-39
-654.3418 -1000.3259 20.865038 7.0529664e-39
-436.53983 -1010.4703 19.214071 7.0529664e-39
-366.76035 -1009.2488 0 7.0529664e-39
-357.28708 -1031.3636 0 7.0529664e-39
911.31586 -1013.6949 12.793954 7.0529664e-39
-679.64459 -977.63379 0 7.0529664e-39
-650.31726 -967.07874 1.5760846 7.0529664e-39
-611.12933 -971.117 13.423401 7.0529664e-39
-558.82471 -959.98541 19.389645 7.0529664e-39
-530.32269 -947.79858 18.957699 7.0529664e-39
-456.06149 -959.71936 18.547527 7.0529664e-39
-447.26019 -979.55371 18.796234 7.0529664e-39
-383.27817 -962.3277 0 7.0529664e-39
889.94818 -967.04944 11.463326 7.0529664e-39
-2675.1829 -916.95325 0 7.0529664e-39
-596.49939 -940.83594 0 7.0529664e-39
-569.04877 -927.9491 0 7.0529664e-39
-512.41742 -921.11151 8.8042784 7.0529664e-39
-473.15347 -929.27179 18.20286 7.0529664e-39
-410.35031 -911.80579 0 7.0529664e-39
-401.32486 -933.00555 0 7.0529664e-39
868.59613 -921.35248 10.323688 7.0529664e-39
-2687.6426 -884.07709 0 7.0529664e-39
-499.98691 -855.625 0 7.0529664e-39
-468.62469 -887.49011 0 7.0529664e-39
-426.55566 -877.40326 0 7.0529664e-39
845.51758 -871.35815 10.599434 7.0529664e-39
857.51404 -895.98181 14.438968 7.0529664e-39
-2717.4033 -824.22534 0 7.0529664e-39
-819.31903 -847.4184 9.6594009 7.0529664e-39
-778.3736 -831.52435 10.960986 7.0529664e-39
-752.52069 -822.08051 11.67218 7.0529664e-39
-499.77026 -846.69141 9.3513184 7.0529664e-39
-459.95383 -824.67688 2.8592834 7.0529664e-39
-447.9248 -817.30457 0 7.0529664e-39
827.83447 -832.74646 10.254375 7.0529664e-39
-2732.583 -789.34656 0 7.0529664e-39
-724.8689 -804.1369 7.2897387 7.0529664e-39
-694.44409 -792.39246 10.653321 7.0529664e-39
-654.13135 -779.81622 2.4607909 7.0529664e-39
-590.1499 -778.62189 0 7.0529664e-39
-563.74384 -769.12939 0 7.0529664e-39
-537.36292 -765.15759 0 7.0529664e-39
-479.57016 -791.7511 0 7.0529664e-39
803.68311 -779.91962 10.684045 7.0529664e-39
813.72479 -802.37189 8.5566711 7.0529664e-39
-2751.731 -740.40405 0 7.0529664e-39
-2743.0566 -762.26385 0 7.0529664e-39
-588.22491 -759.39191 0 7.0529664e-39
-562.5177 -760.35632 0 7.0529664e-39
-538.23206 -762.71082 0 7.0529664e-39
422.16583 -737.53143 17.796049 7.0529664e-39
786.37445 -742.83673 9.4443693 7.0529664e-39
-2770.8748 -701.84619 0 7.0529664e-39
430.47403 -702.7193 18.921223 7.0529664e-39
452.24658 -691.3382 20.840054 7.0529664e-39
760.04419 -685.99945 7.4361744 7.0529664e-39
771.30658 -709.64874 10.9671 7.0529664e-39
-2797.2227 -643.63806 0 7.0529664e-39
-2786.0488 -665.78345 0 7.0529664e-39
-620.96539 -630.57672 0 7.0529664e-39
744.00128 -651.19177 9.01227 7.0529664e-39
-2813.7361 -608.33917 0 7.0529664e-39
-1746.8761 -589.67249 32.182224 7.0529664e-39
-608.48169 -604.62646 7.7372341 7.0529664e-39
714.8454 -592.15558 9.0112658 7.0529664e-39
724.77771 -613.43054 7.7384005 7.0529664e-39
-2842.4316 -545.65027 0 7.0529664e-39
-2828.8376 -570.76056 0 7.0529664e-39
-1773.4745 -559.59332 12.886859 7.0529664e-39
-1741.9182 -558.2677 22.847685 7.0529664e-39
-630.47589 -578.73767 44.851898 7.0529664e-39
-609.25037 -559.6275 16.499344 7.0529664e-39
711.6142 -570.4751 7.9526777 7.0529664e-39
742.17841 -555.87225 8.2653856 7.0529664e-39
775.44873 -544.9632 7.1903868 7.0529664e-39
-2847.5613 -532.90771 0 7.0529664e-39
-965.73279 -496.74551 0 7.0529664e-39
-639.01282 -511.24463 42.892216 7.0529664e-39
-616.15906 -518.05554 11.237906 7.0529664e-39
797.23706 -534.56006 8.679019 7.0529664e-39
832.17657 -518.3844 9.2559023 7.0529664e-39
857.6546 -501.72141 6.6654696 7.0529664e-39
-2523.2195 -457.18439 22.408899 7.0529664e-39
-2509.2378 -451.9353 44.503601 7.0529664e-39
-995.69012 -491.73602 19.383835 7.0529664e-39
-964.47565 -488.80145 9.9386902 7.0529664e-39
-921.23999 -488.24228 8.6680288 7.0529664e-39
-876.79626 -485.5014 9.1541958 7.0529664e-39
-832.90857 -483.33588 8.0678949 7.0529664e-39
-786.45239 -481.49966 8.324193 7.0529664e-39
-741.61414 -482.69745 8.1687555 7.0529664e-39
-695.06854 -482.03369 19.456881 7.0529664e-39
-652.95251 -485.35519 15.561883 7.0529664e-39
-627.14752 -492.91727 8.6956625 7.0529664e-39
760.91016 -471.38937 7.8041506 7.0529664e-39
766.9491 -474.60742 7.8797498 7.0529664e-39
843.17938 -479.75375 7.6901641 7.0529664e-39
884.6886 -482.15817 6.4829836 7.0529664e-39
922.05029 -474.07556 11.888904 7.0529664e-39
-2522.7925 -418.68286 22.307678 7.0529664e-39
-2514.8645 -437.26404 24.292166 7.0529664e-39
-2532.999 -403.9072 0 7.0529664e-39
-1504.8794 -234.9774 11.838545 7.0529664e-39
-1479.4919 -239.6254 26.1612 7.0529664e-39
-1468.5118 -218.8149 14.814601 7.0529664e-39
-1419.6425 -201.52698 13.925077 7.0529664e-39
-1377.2842 -184.91081 12.151237 7.0529664e-39
424.1575 -195.38531 17.504482 6.9607708e-39
451.89401 -221.0873 44.013699 7.0529664e-39
-1374.2469 -178.48351 24.188999 7.0529664e-39
-1326.0544 -164.40039 10.793647 7.0529664e-39
-1282.0917 -144.68115 11.277167 7.0529664e-39
-1257.5754 -135.0621 22.077299 7.0529664e-39
430.02643 -167.73582 18.24683 7.0529664e-39
462.07556 -155.18077 19.856415 7.0529664e-39
519.58807 -150.46939 12.429942 7.0529664e-39
547.78723 -138.16295 13.393546 7.0529664e-39
-1260.8206 -134.7428 0 7.0529664e-39
-1232.8982 -121.19669 10.214794 7.0529664e-39
-1185.2557 -100.67443 9.5787001 7.0529664e-39
-1161.6412 -92.548798 20.34075 7.0529664e-39
-111.2772 -125.5551 8.7924004 7.0529664e-39
566.87268 -112.89046 13.066828 7.0529664e-39
587.30469 -131.54623 26.299875 7.0529664e-39
-1277.7997 -75.020103 0 7.0529664e-39
-1147.506 -80.834602 8.7829256 7.0529664e-39
-1092.5795 -63.044468 10.933928 7.0529664e-39
-1058.7499 -49.718441 9.270731 7.0529664e-39
524.52393 -47.433353 12.250188 7.0529664e-39
579.45367 -77.637604 13.297994 7.0529664e-39
587.10193 -62.662933 15.157066 7.0529664e-39
-1152.2511 -7.876358 0 7.0529664e-39
-1052.5033 -38.735184 9.8901396 7.0529664e-39
-1010.5969 -23.733349 5.5411377 7.0529664e-39
0.99250001 -0.00050000002 0.1219 7.0529664e-39
103.9133 -27.882401 9.4127998 7.0529664e-39
398.2999 -5.5064592 6.2667918 7.0529664e-39
430.2529 -14.847806 8.7583694 7.0529664e-39
459.8945 -3.5502002 40.236916 7.0529664e-39
512.76245 -27.606283 19.025398 7.0529664e-39
-1134.8469 30.454628 0 7.0529664e-39
-967.13965 9.5665102 0 7.0529664e-39
-1.3925669 43.470837 0.40478808 7.0529664e-39
1.5066879 4.6262155 0.25398761 7.0529664e-39
56.532097 32.969128 4.918036 7.0529664e-39
381.99017 32.112652 6.4905152 7.0529664e-39
434.48926 19.162529 19.804867 7.0529664e-39
-1141.4606 65.069267 0 7.0529664e-39
-926.88007 62.70385 0 7.0529664e-39
-2.6114569 46.679916 0.30911428 7.0529664e-39
42.438671 56.118813 2.5887947 7.0529664e-39
50.357533 52.492046 5.9101472 7.0529664e-39
401.77679 83.057587 5.2349882 7.0529664e-39
415.12686 64.456535 19.156847 7.0529664e-39
-1212.5151 134.93401 0 7.0529664e-39
-1153.4623 108.59969 0 7.0529664e-39
-909.22363 105.5748 0 7.0529664e-39
88.120552 127.69245 2.7082002 7.0529664e-39
90.531502 127.0143 2.7226 7.0529664e-39
386.58704 114.034 15.723919 7.0529664e-39
427.03653 120.07136 18.210623 7.052965e-39
-1206.0414 161.29723 0 7.0529664e-39
-907.04584 168.81456 0 7.0529664e-39
-32.942276 147.85359 2.2208252 7.0529664e-39
372.95139 136.2155 17.401752 7.0529664e-39
-1206.4976 197.40268 0 7.0529664e-39
-49.489433 218.25821 35.448059 7.0529664e-39
-44.160198 217.46129 35.145638 7.0529664e-39
-1215.5825 269.043 0 7.0529664e-39
-1201.0127 249.55775 0 7.0529664e-39
-991.31952 243.72038 17.818926 7.0529664e-39
-980.53571 240.75613 8.8963757 7.0529664e-39
-925.65302 230.79597 0 7.0529664e-39
-91.91423 239.13385 4.9212646 7.0529664e-39
-75.915741 240.50407 14.496152 7.0529664e-39
-32.146362 245.61787 4.8551874 7.0529664e-39
-1220.7882 280.0054 0 7.0529664e-39
-1212.0562 284.50839 0 7.0529664e-39
-966.2691 307.68768 0 7.0529664e-39
-74.842163 313.83917 16.911985 7.0529664e-39
-1230.6868 334.49887 0 7.0529664e-39
-956.29199 315.52289 0 7.0529664e-39
-95.889885 343.49774 3.6461 7.0529664e-39
-79.134109 319.65512 15.235803 7.0529664e-39
-1287.5547 383.94528 0 7.0529664e-39
-1251.326 363.30701 0 7.0529664e-39
-1005.5332 398.68146 0 7.0529664e-39
217.07437 382.02206 38.442387 7.0529664e-39
235.48376 392.27277 40.029385 7.0529664e-39
-1263.7144 422.58813 0 7.0529664e-39
-1258.5015 417.67209 0 7.0529664e-39
-996.23706 406.5553 0 7.0529664e-39
-1330.9796 475.3392 0 7.0529664e-39
-1045.0664 488.23459 0 7.0529664e-39
-1039.3267 497.66513 0 7.0529664e-39
353.31 514.82489 32.724918 7.0529664e-39
-1623.6292 560.01526 0 7.0529664e-39
-1615.6154 560.24158 0 7.0529664e-39
-1567.3711 578.33398 0 7.0529664e-39
-1507.3561 575.63715 17.324871 7.0529664e-39
-1092.1636 581.87366 0 7.0529664e-39
-136.7861 570.83954 0 7.0529664e-39
383.37967 571.04388 36.046398 7.0529664e-39
-1726.3104 610.60657 31.962341 7.0529664e-39
-1572.8295 588.99988 0 7.0529664e-39
-1497.7783 611.2558 18.80554 7.0529664e-39
-1473.0974 625.5874 15.958972 7.0529664e-39
-1089.827 590.87427 0 7.0529664e-39
-1079.1038 597.54199 0 7.0529664e-39
-342.21301 613.35791 15.820317 7.0529664e-39
-165.02707 627.66443 3.7772048 7.0529664e-39
396.77637 592.99445 37.394051 7.0529664e-39
-1596.832 651.26129 30.101902 7.0529664e-39
-1541.7124 665.57349 0 7.0529664e-39
-1494.5044 665.54565 0 7.0529664e-39
-1457.8344 647.24884 25.318682 7.0529664e-39
-1436.2206 653.1593 24.798132 7.0529664e-39
-1130.8695 670.74872 0 7.0529664e-39
-340.74155 636.53662 0 7.0529664e-39
-155.133 632.93597 7.4015641 7.0529664e-39
-1547.5444 680.35864 0 7.0529664e-39
-1495.0605 681.35046 0 7.0529664e-39
-1463.7476 703.29852 23.597092 7.0529664e-39
-1125.4607 676.245 0 7.0529664e-39
-1123.1672 681.48743 0 7.0529664e-39
-1493.8768 750.34912 18.583647 7.0529664e-39
-1461.7339 740.98499 12.261558 7.0529664e-39
-1174.1364 756.97003 0 7.0529664e-39
-1169.7214 761.95007 0 7.0529664e-39
-154.3493 756.67596 28.77437 7.0529664e-39
-1503.4486 787.31116 29.623713 7.0529664e-39
-1465.9562 767.03357 0 7.0529664e-39
-1176.205 779.39911 0 7.0529664e-39
-1165.0012 768.68726 0 7.0529664e-39
-142.14185 774.37878 34.438454 7.0529664e-39
-132.75261 785.56683 41.753639 7.0529664e-39
-1536.0916 854.9776 0 7.0529664e-39
-1516.3013 827.56567 25.844532 7.0529664e-39
-1218.1359 846.41553 0 7.0529664e-39
-1213.167 852.94434 0 7.0529664e-39
-1585.2899 879.10303 31.641251 7.0529664e-39
-1536.7682 866.1225 20.562824 7.0529664e-39
-1503.4381 873.16724 17.631521 7.0529664e-39
-1205.9714 862.63879 0 7.0529664e-39
-1502.4907 913.68536 30.69488 7.0529664e-39
-1465.2881 916.38745 0 7.0529664e-39
-1263.7822 939.9353 0 7.0529664e-39
-1259.1982 944.40222 0 7.0529664e-39
-1790.822 985.72894 35.68145 7.0529664e-39
-1251.0291 952.29401 0 7.0529664e-39
-1658.0813 1030.4622 34.075798 7.0529664e-39
-1301.0702 1031.4641 0 7.0529664e-39
-1670.3151 1065.4492 34.581924 7.0529664e-39
-1652.8737 1061.7972 34.292233 7.0529664e-39
-1290.8495 1043.2318 0 7.0529664e-39
-1665.2928 1114.8164 0 7.0529664e-39
-1646.6605 1091.3094 22.903366 7.0529664e-39
-1344.4751 1122.2964 0 7.0529664e-39
-1716.6368 1148.0964 36.047951 7.0529664e-39
-1689.627 1149.615 20.942883 7.0529664e-39
-1658.4156 1146.0981 8.800375 7.0529664e-39
-1580.725 1152.0531 20.419319 7.0529664e-39
-1522.5664 1166.4766 33.479565 7.0529664e-39
-1333.6904 1134.5544 0 7.0529664e-39
-1694.7693 1189.7183 36.143929 7.0529664e-39
-1601.7538 1174.1152 0 7.0529664e-39
-1546.3381 1208.1238 0 7.0529664e-39
-487.06931 1179.381 0 7.0529664e-39
-1682.986 1226.1439 36.346798 7.0529664e-39
-1645.3958 1246.8202 36.035713 7.0529664e-39
-1618.165 1259.7072 35.794899 7.0529664e-39
-1497.0261 1233.4993 0 7.0529664e-39
-1447.5155 1257.1937 0 7.0529664e-39
-1379.9583 1226.9545 0 7.0529664e-39
-1603.1205 1276.1248 35.766335 7.0529664e-39
-1611.5312 1329.7639 36.4697 7.0529664e-39
-1466.4655 1337.0393 0 7.0529664e-39
-1426.9503 1332.7767 0 7.0529664e-39
-1621.2606 1385.8749 37.229485 7.0529664e-39
-1618.9336 1366.1729 36.97583 7.0529664e-39
-1479.8459 1356.5061 0 7.0529664e-39
-1597.7705 1408.0071 37.173607 7.0529664e-39
-1553.5996 1428.0634 36.834763 7.0529664e-39
-1513.1913 1436.7959 9.1625252 7.0529664e-39
-1476.1556 1433.6924 0 7.0529664e-39
-1507.7244 1453.5012 29.697453 7.0529664e-39
-1469.6515 1444.2239 0 7.0529664e-39
-1516.1678 1508.3534 23.344776 7.0529664e-39
-1538.5284 1555.9191 16.385315 7.0529664e-39
-1527.8269 1533.7061 18.9184 7.0529664e-39
-1556.8717 1595.6322 19.470337 7.0529664e-39
-1581.4984 1650.4583 15.920099 7.0529664e-39
-1571.2567 1627.6595 19.725601 7.0529664e-39
-1596.6913 1685.762 25.356163 7.0529664e-39
-685.72455 1699.2798 31.9853 7.0529664e-39
-672.55042 1704.3201 31.98155 7.0529664e-39
-1623.8325 1748.4775 13.886301 7.0529664e-39
-1613.308 1724.9407 20.634567 7.0529664e-39
-1639.0917 1781.7214 18.113102 7.0529664e-39
-1665.3225 1838.5284 43.2994 7.0529664e-39
-1658.4242 1824.1099 21.449017 7.0529664e-39
-778.47711 1835.917 22.356535 7.0529664e-39
-762.75427 1844.1823 34.834999 7.0529664e-39
-1678.0739 1869.2466 18.766315 7.0529664e-39
-770.3313 1845.1526 0 7.0529664e-39
-760.17859 1845.2455 34.834999 7.0529664e-39
-1692.849 1905.3783 26.702179 7.0529664e-39
-1718.1937 1962.0056 0 7.0529664e-39
-1706.5081 1936.3345 0 7.0529664e-39
-1736.7673 2002.4136 0 7.0529664e-39
-1751.8871 2036.0457 0 7.0529664e-39
-1778.739 2090.28 0 7.0529664e-39
-931.69629 2108.4392 17.228016 7.0529664e-39
-1804.144 2147.8103 0 7.0529664e-39
-1794.5457 2125.8237 0 7.0529664e-39
-925.9129 2116.6082 17.91781 7.0529664e-39
-1817.3643 2177.1704 0 7.0529664e-39
-1846.144 2240.3484 0 7.0529664e-39
-1840.1036 2225.8848 0 7.0529664e-39
-1861.3881 2273.1182 0 7.0529664e-39
-1880.3788 2315.0542 0 7.0529664e-39
-1896.02 2349.354 0 7.0529664e-39
-1921.8656 2404.9092 0 7.0529664e-39
-1943.4468 2451.6323 0 7.0529664e-39
-1964.9512 2498.364 0 7.0529664e-39
-1988.6545 2549.0276 0 7.0529664e-39
-1979.7126 2529.364 0 7.0529664e-39
-2007.5924 2590.0388 0 7.0529664e-39
-2030.9221 2641.5093 0 7.0529664e-39
-2016.5164 2610.9504 0 7.0529664e-39
-2051.2134 2685.8032 0 7.0529664e-39
-2077.429 2741.877 0 7.0529664e-39
-2066.1299 2719.0681 0 7.0529664e-39
-2087.1006 2764.6531 0 7.0529664e-39
-2117.7578 2832.9263 0 7.0529664e-39
-2108.2954 2810.0283 0 7.0529664e-39
-2129.3384 2856.7266 0 7.0529664e-39
-2145.6187 2893.8416 0 7.0529664e-39
-2169.4712 2945.8464 0 7.0529664e-39
-2193.2031 2996.6533 0 7.0529664e-39
-2228.1082 3075.7651 0 7.0529664e-39
-2249.2429 3120.9478 0 7.0529664e-39
-2270.6909 3165.2605 0 7.0529664e-39
-2302.5999 3236.4824 0 7.0529664e-39
-2292.0144 3212.0999 0 7.0529664e-39
-2582.4968 4989.2402 0 7.0529664e-39
-2578.9863 4996.6948 0 7.0529664e-39
-2539.8967 5001.5249 0 7.0529664e-39
-2497.0723 5019.6865 0 7.0529664e-39
-2461.9038 5038.7197 0 7.0529664e-39
-2660.0356 5045.2051 0 7.0529664e-39
-2646.4866 5057.9697 0 7.0529664e-39
-2452.6387 5051.0161 0 7.0529664e-39
-4972.2114 10795.469 0 7.0529664e-39
-4947.9136 10807.181 0 7.0529664e-39
-8419.8037 15815.365 0 7.0529664e-39
48974.457 27573.17 0 7.0529664e-39
890.40265 -4413.8994 78.596901 7.0529664e-39
904.52362 -4433.9907 78.989601 7.0529664e-39
578.03967 -4378.8379 77.096001 7.0529664e-39
598.15198 -4368.0571 76.956406 7.0529664e-39
686.73212 -4373.7373 77.279266 7.0529664e-39
742.39935 -4367.6763 77.331635 7.0529664e-39
798.02191 -4366.665 77.482864 7.0529664e-39
830.32092 -4375.8242 77.743523 7.0529664e-39
867.93005 -4394.083 78.180969 7.0529664e-39
617.3916 -4359.8306 76.860397 7.0529664e-39
651.43372 -4347.6143 76.735321 7.0529664e-39
758.90424 -4361.7964 77.279251 7.0529664e-39
780.41736 -4363.585 77.375244 7.0529664e-39
-229.15331 -3378.7222 59.111301 7.0529664e-39
-223.256 -3379.1169 59.111301 7.0529664e-39
-265.418 -3298.8357 57.767502 7.0529664e-39
504.35696 -3069.8665 54.30315 7.0529664e-39
293.7388 -2656.4019 46.650299 7.0529664e-39
306.77722 -2643.3481 46.4496 7.0529664e-39
329.02509 -2643.3494 46.496117 7.0529664e-39
1182.2866 -2453.01 47.531647 7.0529664e-39
-191.6153 -1492.6787 78.870316 7.0529664e-39
-522.97021 -1369.5334 76.829147 7.0529664e-39
-520.95844 -1326.7987 74.703033 7.0529664e-39
1068.1287 -1316.5388 88.849045 7.0529664e-39
-2606.0767 -1266.5688 50.577068 7.0529664e-39
-529.86005 -1280.0458 72.606079 7.0529664e-39
667.00385 -1267.7771 75.075897 7.0529664e-39
1052.3013 -1282.192 86.930038 7.0529664e-39
-2624.1196 -1225.4276 50.552662 7.0529664e-39
-2607.4329 -1246.7057 50.447918 7.0529664e-39
-798.1499 -1226.0898 76.67218 7.0529664e-39
-556.93036 -1234.594 70.985008 7.0529664e-39
-538.91492 -1258.5958 71.752602 7.0529664e-39
668.86908 -1254.4681 74.505478 7.0529664e-39
687.41278 -1241.7562 74.385483 7.0529664e-39
-2640.7485 -1192.0176 50.573582 7.0529664e-39
-774.09253 -1206.3628 75.119568 7.0529664e-39
-742.89001 -1189.1691 73.484444 7.0529664e-39
-645.10419 -1178.7635 70.42408 7.0529664e-39
-606.9577 -1194.4377 70.220596 7.0529664e-39
-580.01337 -1211.0188 70.370964 7.0529664e-39
-2662.803 -1146.2384 50.603252 7.0529664e-39
-2654.9143 -1168.1902 50.629398 7.0529664e-39
959.92352 -1140.9165 78.142342 7.0529664e-39
-2662.0322 -1113.5585 50.367638 7.0529664e-39
-2644.634 -1091.5547 49.940048 7.0529664e-39
953.96484 -1103.1172 76.431419 7.0529664e-39
-2707.1021 -1048.9287 50.675964 7.0529664e-39
-2657.0767 -1051.4747 49.879002 7.0529664e-39
-2649.7471 -1067.6635 49.865002 7.0529664e-39
930.99823 -1054.5779 73.723923 7.0529664e-39
-2719.0811 -1012.9684 50.648823 7.0529664e-39
910.95447 -1010.8984 71.316483 7.0529664e-39
-2752.6199 -950.84937 50.833035 7.0529664e-39
-2729.3704 -970.51373 50.563988 7.0529664e-39
892.50867 -970.2998 69.092186 7.0529664e-39
-2772.7063 -904.6535 50.908699 7.0529664e-39
869.80695 -922.125 66.43396 7.0529664e-39
-2794.2161 -863.35138 51.048302 7.0529664e-39
-504.08969 -859.44446 82.188927 7.0529664e-39
-485.99905 -858.22772 81.359642 7.0529664e-39
845.19458 -870.99084 63.605633 7.0529664e-39
856.83539 -895.37469 64.948898 7.0529664e-39
-2803.7883 -834.07904 51.060482 7.0529664e-39
-504.3385 -843.13312 66.005692 7.0529664e-39
-488.89197 -850.79254 60.830219 7.0529664e-39
827.22278 -830.92322 61.448257 7.0529664e-39
-2835.886 -769.96167 51.292599 7.0529664e-39
-2823.8169 -792.47211 51.194458 7.0529664e-39
803.84442 -777.92139 58.625 7.0529664e-39
813.80676 -801.31628 59.8549 7.0529664e-39
-2842.0142 -754.16199 51.3246 7.0529664e-39
-2808.167 -726.24316 50.629402 7.0529664e-39
426.53009 -743.89172 67.489456 7.0529664e-39
786.40918 -741.78943 56.656578 7.0529664e-39
-2872.5168 -680.62073 51.528252 7.0529664e-39
-2816.7188 -697.80219 50.652702 7.0529664e-39
431.20551 -703.20758 72.176582 7.0529664e-39
454.82364 -693.60461 72.565857 7.0529664e-39
760.29395 -683.5177 69.508629 7.0529664e-39
770.92474 -708.27612 54.86552 7.0529664e-39
-2869.6316 -655.42035 51.379898 7.0529664e-39
-771.05786 -633.12915 87.286499 7.0529664e-39
745.58453 -651.65503 70.043327 7.0529664e-39
-2890.843 -608.26471 51.565311 7.0529664e-39
-2872.7241 -623.19995 51.310101 7.0529664e-39
-769.90302 -629.03711 86.9814 7.0529664e-39
-639.46411 -601.97754 46.026573 7.0529664e-39
716.18237 -591.43408 63.165325 7.0529664e-39
726.94275 -613.8653 66.540787 7.0529664e-39
-2929.5615 -552.88696 52.038727 7.0529664e-39
-2912.3428 -573.11469 51.810379 7.0529664e-39
-630.85529 -582.74841 45.0089 7.0529664e-39
711.96027 -569.95636 63.80265 7.0529664e-39
741.34546 -556.02118 64.125908 7.0529664e-39
776.63068 -544.8299 68.229881 7.0529664e-39
-2931.6738 -537.53387 52.0256 7.0529664e-39
-1001.3615 -495.98944 58.56395 7.0529664e-39
-769.23315 -501.90204 80.357597 7.0529664e-39
-762.12073 -505.01147 79.987175 7.0529664e-39
790.80676 -516.6911 65.759407 7.0529664e-39
882.15344 -496.20255 88.550224 7.0529664e-39
-992.10211 -494.4277 58.092899 7.0529664e-39
-963.97791 -490.86453 56.692913 7.0529664e-39
-920.42346 -486.86887 54.57069 7.0529664e-39
-877.99139 -484.52417 52.555763 7.0529664e-39
-833.73529 -483.091 50.500443 7.0529664e-39
-787.39398 -482.27551 48.392075 7.0529664e-39
-742.90405 -482.23151 46.418728 7.0529664e-39
-715.69641 -483.2399 45.257526 7.0529664e-39
762.22961 -469.2952 60.380863 7.0529664e-39
790.28052 -484.24176 64.724289 7.0529664e-39
826.32886 -483.3511 65.970795 7.0529664e-39
890.19226 -491.13953 68.930702 7.0529664e-39
919.14258 -479.23132 58.830299 7.0529664e-39
946.36908 -467.51929 55.319099 7.0529664e-39
425.79401 -196.62007 67.853439 7.0529664e-39
451.323 -220.32001 61.665901 7.0529664e-39
428.22311 -167.15016 63.800953 7.0529664e-39
463.10187 -154.38071 69.056168 7.0529664e-39
520.47961 -150.3264 66.812172 7.0529664e-39
547.1955 -138.69873 66.596924 7.0529664e-39
568.35907 -112.42991 61.028408 7.0529664e-39
587.88104 -131.5148 61.18222 7.0529664e-39
-3152.585 -52.276199 55.036148 7.0529664e-39
-3147.907 -62.091751 54.9576 7.0529664e-39
525.45386 -46.65797 63.375988 7.0529664e-39
580.41046 -79.425797 63.654743 7.0529664e-39
588.21704 -63.606956 59.844524 7.0529664e-39
-3156.0645 -35.118523 55.092899 7.0529664e-39
-3138.7419 -12.601151 54.787476 7.0529664e-39
494.17276 -1.4016249 65.081146 7.0529664e-39
513.33539 -24.899914 66.28669 7.0529664e-39
-3177.7185 34.754818 55.470722 7.0529664e-39
-3143.002 8.3718243 54.861649 7.0529664e-39
448.54459 33.578506 61.636189 7.0529664e-39
475.21475 19.725599 67.170502 7.0529664e-39
495.8194 0.43270001 78.530098 7.0529664e-39
-3187.7034 61.751984 55.652222 7.0529664e-39
-2737.4868 77.232445 47.80212 7.0529664e-39
441.2803 72.556076 61.652588 7.0529664e-39
454.01575 54.671452 68.396484 7.0529664e-39
-2751.6267 110.04133 48.068275 7.0529664e-39
-2741.0256 92.366699 47.871948 7.0529664e-39
378.35718 126.054 55.972668 6.9607708e-39
424.80603 108.64777 61.596794 7.0529664e-39
-3249.5649 159.60455 56.790131 7.0529664e-39
371.46277 137.10062 57.599728 7.0529664e-39
-3269.0647 200.37404 57.169083 7.0529664e-39
-2795.0818 206.53279 48.921577 7.0529664e-39
-2805.3657 227.4408 49.128502 7.0529664e-39
-993.00311 240.39818 76.854301 7.0529664e-39
-988.7215 253.1572 74.974785 7.0529664e-39
-3312.8657 297.43112 58.059162 7.0529664e-39
-2847.4031 309.99841 49.995338 7.0529664e-39
-3330.8579 323.07294 58.41325 7.0529664e-39
-3307.3762 341.77679 58.037971 7.0529664e-39
-2855.6006 336.85245 50.190632 7.0529664e-39
-99.806503 357.70789 58.819401 7.0529664e-39
-101.4199 365.46069 60.070801 7.0529664e-39
213.92123 382.46594 69.412201 7.0529664e-39
235.48082 391.38007 72.345741 7.0529664e-39
-3379.5093 443.42578 59.495251 7.0529664e-39
-3372.0359 425.79242 59.326534 7.0529664e-39
-2935.6069 422.67206 51.769634 7.0529664e-39
-2889.4038 437.24811 51.009026 7.0529664e-39
-3391.5176 466.64157 59.757038 7.0529664e-39
-2930.4243 478.83533 51.829273 7.0529664e-39
-2909.8962 456.90405 51.414803 7.0529664e-39
-2919.0933 518.53497 51.750725 7.0529664e-39
348.48074 528.1485 55.359737 7.0529664e-39
368.29364 530.59985 59.366009 7.0529664e-39
-3442.1816 581.58246 60.935101 7.0529664e-39
-3018.9768 579.1767 53.657402 7.0529664e-39
-2840.0547 572.66278 50.571251 7.0529664e-39
384.29242 556.02234 66.205887 7.0529664e-39
405.1019 580.26813 86.892799 7.0529664e-39
-3001.5815 611.01038 53.468365 7.0529664e-39
-340.96808 614.46887 73.857086 7.0529664e-39
-160.33298 629.01135 79.702599 7.0529664e-39
380.82187 596.56189 67.327301 7.0529664e-39
-3474.7485 646.90106 61.694256 7.0529664e-39
-3021.2915 669.25378 54.015198 7.0529664e-39
-3002.302 646.50305 53.6068 7.0529664e-39
-1453.3038 651.79681 83.475861 7.0529664e-39
-151.47551 633.15607 79.937607 7.0529664e-39
-3036.2529 684.81299 54.329338 7.0529664e-39
-1460.208 680.80615 84.435333 7.0529664e-39
-161.0489 764.23181 68.330101 7.0529664e-39
-3067.0828 788.87402 55.278744 7.0529664e-39
-1516.7263 787.87573 89.572998 7.0529664e-39
-156.35945 770.02783 68.74408 7.0529664e-39
-3562.5684 839.01776 63.88628 7.0529664e-39
-3552.2981 818.8067 63.6315 7.0529664e-39
-3570.6714 858.56073 64.102699 7.0529664e-39
-3120.1816 894.9928 56.659248 7.0529664e-39
-3130.8245 924.53583 56.982121 7.0529664e-39
-3623.7351 971.67792 65.487259 7.0529664e-39
-3130.8804 948.84723 57.104301 7.0529664e-39
680.47498 971.81897 62.175098 7.0529664e-39
-3637.3242 1003.0319 65.859573 7.0529664e-39
-3176.0669 1020.4929 58.22995 7.0529664e-39
-2765.0769 1012.5741 51.399506 7.0529664e-39
-376.76285 1031.853 57.569561 7.0529664e-39
663.02539 1014.9551 63.535851 7.0529664e-39
-408.46344 1067.9829 59.924675 7.0529664e-39
-400.06091 1068.6722 59.802536 7.0529664e-39
-3669.76 1118.4573 66.964897 7.0529664e-39
-3702.3467 1144.3115 67.641174 7.0529664e-39
-3717.1558 1174.8684 68.046898 7.0529664e-39
-464.29681 1199.5118 67.408699 7.0529664e-39
-3746.6296 1239.6494 68.884651 7.0529664e-39
-3733.5942 1215.28 68.535599 7.0529664e-39
-3782.7063 1304.7061 69.844498 7.0529664e-39
-3766.1177 1279.0404 69.425659 7.0529664e-39
-3784.6599 1311.2958 69.914299 7.0529664e-39
-1706.6135 1933.0508 45.0098 7.0529664e-39
-1717.5569 1957.6025 45.457733 7.0529664e-39
-1740.2 2006.3982 46.359402 7.0529664e-39
-1762.0062 2053.6143 47.232037 7.0529664e-39
-1781.7556 2096.7913 48.029003 7.0529664e-39
-1807.5101 2154.8704 49.093601 7.0529664e-39
-1795.9384 2126.7112 48.587502 7.0529664e-39
-1822.7361 2186.4492 49.687004 7.0529664e-39
-1840.8423 2225.9993 50.419998 7.0529664e-39
-1858.991 2265.8855 51.158836 7.0529664e-39
-1890.5979 2333.8611 52.426998 7.0529664e-39
-1881.2458 2315.6982 52.077999 7.0529664e-39
-1900.8842 2358.3276 52.872101 7.0529664e-39
-1922.0179 2403.9724 53.724365 7.0529664e-39
-1945.0569 2452.3037 54.63475 7.0529664e-39
-1970.4056 2509.3569 55.690651 7.0529664e-39
-1989.2661 2549.8267 56.449852 7.0529664e-39
-2006.2793 2587.8938 57.156651 7.0529664e-39
-2031.4603 2641.718 58.1689 7.0529664e-39
-2022.9348 2623.0442 57.819801 7.0529664e-39
-1182.8502 2627.0469 50.289101 7.0529664e-39
-2043.2657 2666.6882 58.640099 7.0529664e-39
-2072.3779 2731.2468 59.844299 7.0529664e-39
-2063.8152 2710.1255 59.4603 7.0529664e-39
-2089.9666 2767.4644 60.533699 7.0529664e-39
-2108.5667 2810.4043 61.327751 7.0529664e-39
-2131.146 2859.6895 62.25275 7.0529664e-39
-2148.2336 2896.822 62.950802 7.0529664e-39
-2169.3679 2944.6106 63.8409 7.0529664e-39
-2189.9014 2987.2168 64.652451 7.0529664e-39
-2215.2065 3041.1689 65.673401 7.0529664e-39
-2237.114 3087.0474 66.545998 7.0529664e-39
-2260.1177 3139.5015 67.523399 7.0529664e-39
-2249.8252 3114.8735 67.069603 7.0529664e-39
-2277.333 3173.9177 68.1866 7.0529664e-39
-2304.4917 3233.165 69.303497 7.0529664e-39
-2317.3608 3262.0491 69.844498 7.0529664e-39
-2346.3025 3324.8638 71.031303 7.0529664e-39
-2333.6116 3295.8777 70.490303 7.0529664e-39
-2407.6389 3457.696 73.544403 7.0529664e-39
-1806.6208 3988.2229 76.424103 7.0529664e-39
1157.8267 -1511.1508 99.769806 7.0529664e-39
1135.3368 -1461.8655 97.0047 7.0529664e-39
1113.8754 -1415.9001 94.414078 7.0529664e-39
1090.5698 -1365.9896 91.60537 7.0529664e-39
1078.7764 -1337.8976 90.070198 7.0529664e-39
1082.0688 -1346.7847 90.541199 7.0529664e-39
803.45483 -775.23651 97.679794 7.0529664e-39
813.87366 -797.7453 99.706169 7.0529664e-39
-1746.7354 -554.29938 96.04229 7.0529664e-39
-1749.1049 -535.2002 95.862045 7.0529664e-39
-945.26123 -511.74069 94.041 7.0529664e-39
553.01343 -135.62814 90.184502 7.0529664e-39
568.66864 -113.02724 91.856972 7.0529664e-39
589.03558 -131.2334 95.581497 7.0529664e-39
581.51721 -82.888901 93.036789 7.0529664e-39
588.55798 -65.186325 93.793648 7.0529664e-39
338.51877 509.99472 96.950272 7.0529664e-39
-684.28796 1699.9199 96.036484 7.0529664e-39
-667.56189 1704.9531 95.95797 7.0529664e-39
-2258.5081 4762.8413 92.009102 7.0529664e-39
-2245.3696 4765.1787 91.947998 7.0529664e-39
-2231.915 4784.9199 92.16037 7.0529664e-39
