# .PCD v0.7 - Point Cloud Data file format
VERSION 0.7
FIELDS x y z rgb
SIZE 4 4 4 4
TYPE F F F F
COUNT 1 1 1 1
WIDTH 544
HEIGHT 1
VIEWPOINT 0 0 0 1 0 0 0
POINTS 544
DATA ascii
1133.8363 -2285.1091 44.526867 7.0529664e-39
-62.916653 -2167.8452 37.856209 7.0529664e-39
-44.783901 -2174.2075 37.959 7.0529664e-39
1409.5568 -2084.4551 21.950775 7.0529664e-39
1392.9391 -2038.9255 21.492649 7.0529664e-39
1403.521 -2061.3621 21.69335 7.0529664e-39
1373.4413 -1998.4187 14.043367 7.0529664e-39
1339.2344 -1922.3783 13.711767 7.0529664e-39
1315.282 -1871.4961 15.98292 7.0529664e-39
909.05536 -1807.6871 20.182472 7.0529664e-39
1291.9924 -1819.8384 19.488518 7.0529664e-39
919.12646 -1788.7554 16.224016 7.0529664e-39
1252.158 -1737.7886 23.377487 7.0529664e-39
1230.5638 -1686.6885 14.555301 7.0529664e-39
1210.0325 -1626.6377 17.731649 7.0529664e-39
1222.5881 -1658.6353 20.5415 7.0529664e-39
1196.9011 -1600.4174 14.014279 7.0529664e-39
1165.3115 -1533.7634 11.198634 7.0529664e-39
1178.4454 -1559.6753 20.454222 7.0529664e-39
1153.2491 -1505.4707 19.88526 7.0529664e-39
-1891.6793 -1446.0381 20.7771 7.0529664e-39
-1889.2255 -1450.1787 41.571648 7.0529664e-39
-256.88812 -1444.1047 25.602667 7.0529664e-39
1134.5945 -1466.531 16.187117 7.0529664e-39
-1901.9664 -1428.2316 19.169447 7.0529664e-39
-279.46674 -1410.4442 25.098303 7.0529664e-39
-264.90005 -1435.741 25.48402 7.0529664e-39
1111.193 -1416.0496 15.72025 7.0529664e-39
-300.59155 -1370.5656 24.492437 7.0529664e-39
1090.5824 -1370.7993 17.51223 7.0529664e-39
-2154.418 -1309.3914 44.006248 7.0529664e-39
-1982.2634 -1334.5381 41.7113 7.0529664e-39
-1963.6124 -1334.899 35.525631 7.0529664e-39
-322.81818 -1323.0614 23.77191 7.0529664e-39
-313.53159 -1346.262 24.127951 7.0529664e-39
1069.5231 -1325.2555 13.199834 7.0529664e-39
-2170.7871 -1279.5667 43.98444 7.0529664e-39
-2157.874 -1299.4906 43.968437 7.0529664e-39
-337.9212 -1282.7418 23.154593 7.0529664e-39
666.60309 -1271.9791 15.061419 7.0529664e-39
1049.3179 -1279.7839 16.06979 7.0529664e-39
-2206.71 -1218.1693 43.997501 7.0529664e-39
-2195.4753 -1234.2036 27.509361 7.0529664e-39
-361.03235 -1216.8788 22.155849 7.0529664e-39
-352.76498 -1240.6051 22.513601 7.0529664e-39
668.98022 -1255.6201 11.2806 7.0529664e-39
687.28625 -1242.4324 12.884073 7.0529664e-39
1028.1477 -1234.9318 10.519425 7.0529664e-39
-2208.9121 -1200.9078 27.450462 7.0529664e-39
-369.07739 -1191.4302 21.771866 7.0529664e-39
-954.44995 -1132.1272 25.847025 7.0529664e-39
-940.59497 -1126.1351 25.611401 7.0529664e-39
-384.39273 -1147.6205 21.126135 7.0529664e-39
964.12628 -1139.3239 22.311644 7.0529664e-39
-916.49646 -1116.4999 25.213743 7.0529664e-39
-876.19989 -1098.0228 24.520622 7.0529664e-39
-844.42889 -1083.6166 23.979599 7.0529664e-39
-408.19537 -1091.1294 20.334984 7.0529664e-39
-398.65433 -1112.2172 20.623522 7.0529664e-39
943.74829 -1083.3647 25.0791 7.0529664e-39
954.14288 -1107.3453 11.594745 7.0529664e-39
-828.72699 -1057.9766 10.131122 7.0529664e-39
-786.30072 -1058.9576 23.022902 7.0529664e-39
-747.14301 -1040.6508 22.361528 7.0529664e-39
-420.33704 -1058.2456 19.876238 7.0529664e-39
932.21594 -1058.9366 11.191747 7.0529664e-39
-1138.4191 -993.55542 15.061429 7.0529664e-39
-737.67993 -1010.4097 4.7246146 7.0529664e-39
-699.86621 -1015.9815 18.689199 7.0529664e-39
-651.03949 -999.08392 20.815355 7.0529664e-39
-436.45096 -1010.1242 19.20792 7.0529664e-39
911.54144 -1014.2162 12.804692 7.0529664e-39
-1145.8914 -985.19525 15.387199 7.0529664e-39
-1089.293 -966.69482 12.72803 7.0529664e-39
-1049.5049 -950.73511 13.329617 7.0529664e-39
-611.87762 -970.57471 13.09629 7.0529664e-39
-562.61481 -961.39117 19.444487 7.0529664e-39
-531.62543 -948.25769 18.975758 7.0529664e-39
-455.86911 -959.34882 18.540276 7.0529664e-39
-447.43124 -980.39014 18.810783 7.0529664e-39
890.38501 -968.086 10.580193 7.0529664e-39
-1005.6262 -932.18396 11.991267 7.0529664e-39
-957.73438 -910.21069 11.518588 7.0529664e-39
-941.22083 -908.13385 11.3964 7.0529664e-39
-512.8808 -922.5592 9.3082399 7.0529664e-39
-473.15399 -929.74371 18.210201 7.0529664e-39
869.33398 -922.39758 10.331827 7.0529664e-39
-906.23553 -882.84003 8.2615376 7.0529664e-39
-878.58386 -875.43359 10.862184 7.0529664e-39
-848.11328 -864.04639 15.835888 7.0529664e-39
-495.6199 -855.67749 17.260401 7.0529664e-39
846.93933 -874.40405 10.627265 7.0529664e-39
857.63177 -898.08789 21.6759 7.0529664e-39
-819.01434 -849.36804 8.5604 7.0529664e-39
-780.19409 -832.29718 9.976676 7.0529664e-39
-748.92487 -821.05725 11.142115 7.0529664e-39
-499.80157 -847.62158 8.5793171 7.0529664e-39
-459.27905 -823.90765 2.8622003 7.0529664e-39
827.99091 -832.9433 10.256563 7.0529664e-39
-725.47107 -804.1142 7.898675 7.0529664e-39
-692.4563 -791.69568 10.502196 7.0529664e-39
-652.07648 -779.64667 1.8080701 7.0529664e-39
803.26514 -779.58954 8.8800907 7.0529664e-39
814.07452 -802.99884 11.393943 7.0529664e-39
-100.39701 -736.53149 11.920382 7.0529664e-39
-77.931007 -724.78955 17.689548 7.0529664e-39
422.59863 -738.43597 17.804762 7.0529664e-39
786.48315 -743.08539 9.44524 7.0529664e-39
-92.930054 -717.30634 29.46685 7.0529664e-39
-80.029129 -709.29053 15.343321 7.0529664e-39
430.34351 -703.01117 18.973225 7.0529664e-39
452.19678 -692.05609 23.09993 7.0529664e-39
759.69647 -685.14551 8.1153736 7.0529664e-39
770.96033 -708.93628 9.9732637 7.0529664e-39
743.90149 -651.17432 9.0137835 7.0529664e-39
715.55273 -593.40094 8.1211758 7.0529664e-39
725.85822 -615.51459 7.6656308 7.0529664e-39
711.86438 -569.69714 8.5223789 7.0529664e-39
742.62469 -555.80493 8.0986805 7.0529664e-39
774.59021 -544.98663 7.5108871 7.0529664e-39
796.75787 -534.76562 8.3690538 7.0529664e-39
830.20483 -519.37939 8.7930183 7.0529664e-39
859.45422 -502.24445 8.0932541 7.0529664e-39
-2513.771 -453.81247 29.733068 7.0529664e-39
760.98926 -471.24011 9.1130753 7.0529664e-39
844.08905 -480.99744 7.0522261 7.0529664e-39
883.79456 -481.32217 6.6999164 7.0529664e-39
921.67645 -473.98135 11.883996 7.0529664e-39
-2524.3618 -416.09109 22.315088 7.0529664e-39
-2514.7344 -437.22754 22.266369 7.0529664e-39
-1503.6188 -235.12874 11.784256 7.0529664e-39
-1483.5428 -226.74899 26.1961 7.0529664e-39
-1473.551 -218.87143 13.00785 7.0529664e-39
-1424.033 -202.38136 11.19669 7.0529664e-39
-1380.1721 -186.40437 17.382601 7.0529664e-39
424.48138 -195.81436 17.665207 6.9607708e-39
-1363.7356 -177.68535 8.0862675 7.0529664e-39
-1327.9103 -164.48164 11.719292 7.0529664e-39
-1282.5454 -144.60472 10.43117 7.0529664e-39
429.97409 -167.86188 18.280798 7.0529664e-39
462.17099 -155.14284 20.197392 7.0529664e-39
518.97717 -150.66147 12.376059 7.0529664e-39
546.97748 -138.37468 12.803161 7.0529664e-39
-1236.3677 -123.0619 11.506259 7.0529664e-39
-1188.1906 -101.36945 9.6779461 7.0529664e-39
-1159.1743 -92.043297 20.2971 7.0529664e-39
567.26953 -113.13967 13.342303 7.0529664e-39
587.31573 -131.42245 31.541134 7.0529664e-39
-1148.7926 -81.253372 8.7872868 7.0529664e-39
-1092.0577 -62.29224 10.763762 7.0529664e-39
-1056.2775 -49.076561 9.2475996 7.0529664e-39
524.60925 -47.409344 11.503088 7.0529664e-39
579.47321 -78.105515 13.20628 7.0529664e-39
586.94104 -62.33289 14.682957 7.0529664e-39
-1053.8721 -39.176929 9.911623 7.0529664e-39
-1011.6097 -23.268831 5.9144278 7.0529664e-39
398.35016 -5.5801611 6.2663407 7.0529664e-39
431.8627 -14.731327 9.4368353 7.0529664e-39
467.8576 -4.2476339 40.934151 7.0529664e-39
512.72772 -27.499222 19.048166 7.0529664e-39
-1.2301259 42.826313 0.39154357 7.0529664e-39
1.370504 4.5056677 0.25402337 7.0529664e-39
56.46312 32.850971 4.8331566 7.0529664e-39
381.50208 32.044655 6.2196426 7.0529664e-39
434.30981 19.181133 19.812977 7.0529664e-39
-2.900177 46.586346 0.26178184 7.0529664e-39
42.460182 56.179661 2.8711402 7.0529664e-39
50.257874 52.522858 5.6553006 7.0529664e-39
401.7363 82.935135 5.3833275 7.0529664e-39
415.12622 64.534103 19.20624 7.0529664e-39
-29.8641 134.7083 2.4084001 7.0529664e-39
88.204239 127.75699 2.7099674 7.0529664e-39
90.442802 127.0775 2.7226 7.0529664e-39
386.67438 113.97832 15.887517 7.0529664e-39
427.47949 120.69264 17.745188 7.0529664e-39
-31.573652 140.78401 2.01226 7.0529664e-39
-49.241474 218.31409 35.448055 7.0529664e-39
-44.241951 217.02518 35.080425 7.0529664e-39
-992.69751 243.70413 17.842199 7.0529664e-39
-982.15472 242.79398 11.86475 7.0529664e-39
-91.324791 240.62558 7.68082 7.0529664e-39
-75.837044 240.32938 14.269828 7.0529664e-39
-29.215277 246.11366 6.2669048 7.0529664e-39
-73.228935 314.07651 16.904516 7.0529664e-39
-95.745087 342.26627 3.1217937 7.0529664e-39
-78.954994 319.34372 15.227751 7.0529664e-39
215.48352 380.54819 38.261379 7.0529664e-39
234.88704 391.93185 39.977261 7.0529664e-39
353.56107 515.86731 32.777275 7.0529664e-39
-1507.104 575.86511 17.331577 7.0529664e-39
380.13278 567.33765 35.790318 7.0529664e-39
-1730.0049 615.44934 32.051323 7.0529664e-39
-1709.3837 600.29279 31.6238 7.0529664e-39
-1496.1688 612.73975 16.902061 7.0529664e-39
-1470.5057 625.90393 18.589718 7.0529664e-39
-342.05948 613.41101 15.092732 7.0529664e-39
-163.96248 627.94464 3.2370093 7.0529664e-39
404.827 593.0094 37.629601 7.0529664e-39
-1598.4713 650.78552 30.125341 7.0529664e-39
-1452.6599 645.94336 25.244116 7.0529664e-39
-1435.1777 652.61865 22.037149 7.0529664e-39
-154.89781 632.42975 7.3902245 7.0529664e-39
-1462.3835 703.00092 25.945904 7.0529664e-39
-1492.892 749.02258 21.203083 7.0529664e-39
-1459.9215 751.65076 4.0788717 7.0529664e-39
-1502.2899 785.86371 29.59404 7.0529664e-39
-1516.5444 827.97162 26.396774 7.0529664e-39
-1538.8286 864.89563 18.527472 7.0529664e-39
-1504.1284 872.39917 17.631527 7.0529664e-39
-1503.3375 913.15125 30.702654 7.0529664e-39
-1777.9456 983.87738 35.469131 7.0529664e-39
-1657.1448 1030.0782 34.05835 7.0529664e-39
-1670.8217 1067.4419 34.608101 7.0529664e-39
-1654.6553 1060.2227 34.303493 7.0529664e-39
-1644.9871 1088.4042 22.880102 7.0529664e-39
-1717.7698 1148.2052 36.065399 7.0529664e-39
-1690.5852 1150.9377 22.100126 7.0529664e-39
-1582.3071 1147.2139 22.676483 7.0529664e-39
-1573.7305 1149.2678 34.014702 7.0529664e-39
-1524.4382 1166.2245 33.5028 7.0529664e-39
-1691.3984 1185.251 36.050869 7.0529664e-39
-1682.8691 1227.3446 36.357712 7.0529664e-39
-1644.8258 1247.7274 36.037266 7.0529664e-39
-1616.6521 1259.2078 35.7687 7.0529664e-39
-1602.4359 1277.0526 35.766964 7.0529664e-39
-1611.3361 1325.6169 36.42099 7.0529664e-39
-1621.2703 1381.7009 37.182354 7.0529664e-39
-1618.535 1359.4012 36.894363 7.0529664e-39
-1596.6836 1408.3003 37.162876 7.0529664e-39
-1551.0149 1429.1501 36.8144 7.0529664e-39
-1508.9075 1450.9668 31.676109 7.0529664e-39
-1515.0194 1507.0377 20.69079 7.0529664e-39
-1539.0944 1557.9702 16.370358 7.0529664e-39
-1527.4749 1533.3516 18.883499 7.0529664e-39
-1556.9294 1596.7386 24.324287 7.0529664e-39
-1581.5449 1652.3516 16.01782 7.0529664e-39
-1570.5625 1626.9397 19.751751 7.0529664e-39
-320.85104 1657.3025 29.4655 7.0529664e-39
-312.69196 1649.3649 29.302551 7.0529664e-39
-1597.2081 1687.5698 20.281887 7.0529664e-39
-684.68298 1698.7549 31.9699 7.0529664e-39
-672.44006 1704.1835 31.978668 7.0529664e-39
-330.78009 1672.85 29.765049 7.0529664e-39
-312.85361 1671.7184 29.686501 7.0529664e-39
-1624.5896 1751.3306 20.8731 7.0529664e-39
-1613.0945 1724.9128 20.593834 7.0529664e-39
-1636.0101 1776.3312 24.136686 7.0529664e-39
-1665.7292 1842.2059 43.351799 7.0529664e-39
-1655.6046 1820.2426 18.414787 7.0529664e-39
-775.35706 1827.2559 19.810972 7.0529664e-39
-759.64545 1834.4938 27.74234 7.0529664e-39
-382.21329 1833.8474 32.698044 7.0529664e-39
-1677.286 1870.1462 18.851086 7.0529664e-39
-1695.4008 1912.2986 22.307098 7.0529664e-39
-922.66718 2105.1257 23.410942 7.0529664e-39
-236.983 -4845.4692 84.6791 7.0529664e-39
-288.20187 -4777.769 83.54818 7.0529664e-39
893.0188 -4416.9424 78.657997 7.0529664e-39
908.42554 -4437.2744 79.059402 7.0529664e-39
577.90881 -4377.8467 77.078552 7.0529664e-39
597.75018 -4369.373 76.978203 7.0529664e-39
685.87152 -4374.8882 77.2967 7.0529664e-39
797.70801 -4366.3838 77.477066 7.0529664e-39
831.04718 -4377.1089 77.767937 7.0529664e-39
871.69067 -4398.2622 78.265327 7.0529664e-39
620.52722 -4357.3608 76.8255 7.0529664e-39
650.54773 -4348.5894 76.749847 7.0529664e-39
676.3858 -4354.1055 76.912804 7.0529664e-39
744.0578 -4362.0659 77.239998 7.0529664e-39
775.95691 -4363.5322 77.360703 7.0529664e-39
-229.22099 -3379.7197 59.128799 7.0529664e-39
-224.56799 -3381.0342 59.146198 7.0529664e-39
-266.2348 -3301.7791 57.819801 7.0529664e-39
491.16409 -3066.4402 54.207199 7.0529664e-39
503.6474 -3069.7295 54.298801 7.0529664e-39
304.43243 -2644.9253 46.472282 7.0529664e-39
329.23615 -2643.1538 46.493202 7.0529664e-39
1182.0631 -2451.7214 47.509773 7.0529664e-39
-2293.9185 -1935.7679 52.392101 7.0529664e-39
-2305.1184 -1912.6372 52.283546 7.0529664e-39
-2326.7031 -1873.1627 52.13905 7.0529664e-39
-2312.345 -1818.4945 51.348499 7.0529664e-39
-2376.335 -1759.0371 51.6068 7.0529664e-39
-2313.4238 -1794.0483 51.100639 7.0529664e-39
-2395.0234 -1732.3135 51.595142 7.0529664e-39
-2381.9307 -1754.8278 51.641701 7.0529664e-39
-2412.5964 -1687.8717 51.395393 7.0529664e-39
-2183.7686 -1450.1259 45.756741 7.0529664e-39
-2482.1509 -1431.9154 50.0186 7.0529664e-39
-2207.5789 -1406.5632 45.690399 7.0529664e-39
-2197.4263 -1425.2367 45.717857 7.0529664e-39
-2542.5017 -1351.8722 50.262901 7.0529664e-39
-2217.3782 -1378.6537 45.575989 7.0529664e-39
-522.77081 -1365.689 76.637268 7.0529664e-39
-2579.6531 -1329.0192 50.653221 7.0529664e-39
-2543.9736 -1346.9648 50.245499 7.0529664e-39
-521.04211 -1323.6064 74.548828 7.0529664e-39
1069.2891 -1318.5979 88.97113 7.0529664e-39
-2600.0823 -1282.7904 50.608089 7.0529664e-39
-2395.3203 -1282.9232 47.429836 7.0529664e-39
-529.14062 -1282.0865 72.690292 7.0529664e-39
670.38013 -1277.0952 75.590569 7.0529664e-39
1050.188 -1276.4971 86.629097 7.0529664e-39
-2621.6707 -1228.4454 50.536369 7.0529664e-39
-2606.7952 -1248.9712 50.454926 7.0529664e-39
-795.85657 -1224.4062 76.532608 7.0529664e-39
-556.80969 -1234.3872 70.972527 7.0529664e-39
-538.36548 -1258.8303 71.752602 7.0529664e-39
669.79309 -1254.2373 74.517685 7.0529664e-39
688.77606 -1241.3221 74.399918 7.0529664e-39
-2640.4299 -1192.4825 50.571842 7.0529664e-39
-772.73523 -1205.6536 75.049767 7.0529664e-39
-742.8623 -1189.2932 73.489197 7.0529664e-39
-643.77435 -1179.2703 70.413681 7.0529664e-39
-606.8269 -1194.2495 70.208694 7.0529664e-39
-580.14642 -1211.8408 70.412804 7.0529664e-39
-2663.2791 -1144.2407 50.597019 7.0529664e-39
-2654.355 -1165.7334 50.603249 7.0529664e-39
959.90527 -1139.12 78.069542 7.0529664e-39
-2662.6467 -1113.8163 50.379265 7.0529664e-39
-2645.1167 -1096.9363 49.9837 7.0529664e-39
944.19891 -1081.9742 75.259102 7.0529664e-39
956.98004 -1108.8938 76.763779 7.0529664e-39
-2707.3506 -1049.2065 50.68177 7.0529664e-39
-2655.4041 -1050.2767 49.844101 7.0529664e-39
-2649.2163 -1067.6636 49.856533 7.0529664e-39
931.74548 -1055.9165 73.802422 7.0529664e-39
-2718.6946 -1013.3641 50.644947 7.0529664e-39
910.84302 -1010.7749 71.307732 7.0529664e-39
-2751.564 -950.84375 50.815598 7.0529664e-39
-2729.3291 -971.36896 50.568336 7.0529664e-39
891.04242 -967.08008 68.916 7.0529664e-39
900.29108 -987.32788 70.025497 7.0529664e-39
-2765.6191 -919.66925 50.873791 7.0529664e-39
870.06042 -922.91534 66.473198 7.0529664e-39
-2793.2607 -863.05621 51.0308 7.0529664e-39
-2784.8865 -876.40063 50.961014 7.0529664e-39
-502.70685 -859.57288 72.158203 7.0529664e-39
-483.74872 -856.45874 80.312286 7.0529664e-39
846.84247 -874.49078 63.797531 7.0529664e-39
-2804.9683 -832.75427 51.073486 7.0529664e-39
-504.33893 -842.86023 69.55191 7.0529664e-39
-487.59198 -850.77045 62.865658 7.0529664e-39
827.39783 -831.21948 61.465672 7.0529664e-39
-2824.2434 -790.36749 51.191792 7.0529664e-39
803.30255 -776.52032 58.553478 7.0529664e-39
813.14685 -798.54138 59.728424 7.0529664e-39
-2842.4788 -752.29193 51.324043 7.0529664e-39
-2816.2449 -738.72894 50.821404 7.0529664e-39
-96.234306 -722.5011 63.768932 7.0529664e-39
-73.944923 -732.18103 64.3843 7.0529664e-39
426.29504 -743.16772 67.39798 7.0529664e-39
785.60199 -739.94196 56.559467 7.0529664e-39
-2872.4053 -683.24231 51.536949 7.0529664e-39
-2816.1074 -698.40753 50.644943 7.0529664e-39
-92.778107 -718.76831 63.4058 7.0529664e-39
-84.792068 -713.78522 62.887695 7.0529664e-39
431.18884 -703.29565 72.182388 7.0529664e-39
453.7753 -691.90887 72.391579 7.0529664e-39
760.02509 -683.65082 69.502823 7.0529664e-39
769.77576 -705.78979 54.732941 7.0529664e-39
-2870.4167 -653.45685 51.3857 7.0529664e-39
745.20428 -650.84967 69.243019 7.0529664e-39
-2891.5312 -609.26038 51.580601 7.0529664e-39
-2877.0701 -617.31561 51.3624 7.0529664e-39
716.23572 -592.11395 59.547966 7.0529664e-39
726.7865 -612.86078 69.80706 7.0529664e-39
-2926.666 -548.0636 51.973267 7.0529664e-39
-2913.9111 -572.79724 51.83614 7.0529664e-39
712.26843 -569.78857 63.222237 7.0529664e-39
741.60022 -555.79834 64.47049 7.0529664e-39
776.10864 -545.13147 67.638054 7.0529664e-39
-2934.6243 -538.07489 52.077999 7.0529664e-39
790.7746 -517.27051 66.120743 7.0529664e-39
881.82825 -496.2728 88.52845 7.0529664e-39
762.08167 -468.992 60.360916 7.0529664e-39
788.8725 -483.67365 64.637077 7.0529664e-39
827.29791 -483.45755 65.579216 7.0529664e-39
892.18738 -491.60562 67.684441 7.0529664e-39
918.89563 -479.20599 60.315193 7.0529664e-39
945.39227 -467.242 55.2668 7.0529664e-39
425.82059 -196.47025 67.972092 7.0529664e-39
450.3158 -220.12041 61.543999 7.0529664e-39
428.63974 -166.98959 63.879608 7.0529664e-39
462.61319 -154.01138 69.308617 7.0529664e-39
520.29517 -150.33463 66.790657 7.0529664e-39
546.75073 -138.8325 66.450974 7.0529664e-39
568.32104 -112.89829 61.026505 7.0529664e-39
586.52753 -131.53436 63.186501 7.0529664e-39
-3152.0986 -51.349731 55.027435 7.0529664e-39
-3147.9297 -60.993 54.9576 7.0529664e-39
525.9917 -46.918842 64.895485 7.0529664e-39
580.41162 -79.204483 63.348305 7.052965e-39
588.12604 -63.511986 60.097984 7.0529664e-39
-3157.0234 -31.776167 55.108868 7.0529664e-39
-3139.0923 -11.72886 54.793579 7.0529664e-39
493.95508 -1.0639334 60.650299 7.0529664e-39
513.0174 -24.548073 66.342018 6.9607708e-39
-3173.3372 33.046619 55.39394 7.0529664e-39
-3144.1616 11.345901 54.882 7.0529664e-39
448.63937 33.481304 62.638157 7.0529664e-39
475.51907 19.554745 66.950027 7.0529664e-39
-3187.1846 64.147636 55.644081 7.0529664e-39
-2738.0037 80.117676 47.812599 7.0529664e-39
441.59625 71.903603 61.713814 7.0529664e-39
454.73352 54.067543 69.195168 7.0529664e-39
-2748.687 108.47968 48.01593 7.0529664e-39
-2740.844 97.628197 47.872002 7.0529664e-39
378.52438 125.86082 55.864998 7.0529664e-39
424.69937 108.35286 61.655937 7.0529664e-39
-3249.0364 158.68767 56.780159 7.0529664e-39
373.61655 136.55852 63.003998 7.0529664e-39
-3265.7783 196.03528 57.107185 7.0529664e-39
-2794.9028 206.91835 48.919102 7.0529664e-39
-2789.0337 191.1154 48.796902 7.0529664e-39
-2808.7668 234.8728 49.198299 7.0529664e-39
-993.26556 236.85501 73.673225 7.0529664e-39
-988.54559 253.09692 78.542076 7.0529664e-39
-3313.0601 298.51202 58.064186 7.0529664e-39
-2847.8965 308.54285 50.001137 7.0529664e-39
-3314.7949 334.63623 58.154297 7.0529664e-39
-2855.5535 336.05139 50.188118 7.0529664e-39
-100.89985 361.50433 59.445099 7.0529664e-39
213.51532 382.36996 69.3675 7.0529664e-39
235.64174 391.4642 72.370506 7.0529664e-39
-3379.321 439.70581 59.483604 7.0529664e-39
-3369.2979 420.86438 59.268402 7.0529664e-39
-2939.4089 422.00439 51.833599 7.0529664e-39
-2892.8523 436.1322 51.06575 7.0529664e-39
-3391.3828 467.59186 59.75705 7.0529664e-39
-2931.2961 484.35498 51.859825 7.0529664e-39
-2915.3955 460.5473 51.519539 7.0529664e-39
-2916.5032 517.41669 51.702751 7.0529664e-39
349.04596 527.91254 57.241753 7.0529664e-39
369.34805 530.03436 57.95359 7.0529664e-39
-3443.458 583.03552 60.9613 7.0529664e-39
-3017.3152 577.22217 53.622498 7.0529664e-39
-2839.8997 568.58234 50.554642 7.0529664e-39
384.97382 555.62103 65.331833 7.0529664e-39
405.60809 579.91443 86.892799 7.0529664e-39
-3465.3728 626.01691 61.4674 7.0529664e-39
-2993.2476 623.68652 53.369499 7.0529664e-39
-2842.3535 588.10577 50.664299 7.0529664e-39
-340.84875 614.70642 73.870094 7.0529664e-39
-159.30272 628.45355 79.60508 7.0529664e-39
380.81537 596.16888 67.648651 7.0529664e-39
-3473.5583 644.55157 61.666321 7.0529664e-39
-3020.293 666.82208 53.989052 7.0529664e-39
-3000.1638 645.04962 53.564941 7.0529664e-39
-1456.4835 652.15295 83.636124 7.0529664e-39
-150.91623 633.79175 79.99707 7.0529664e-39
-3031.355 679.25708 54.224648 7.0529664e-39
-1460.4541 683.03949 84.496399 7.0529664e-39
-3550.2478 809.85522 63.561699 7.0529664e-39
-3067.3723 791.15094 55.293602 7.0529664e-39
-1516.5325 787.88623 89.56427 7.0529664e-39
-3562.1208 836.55292 63.868824 7.0529664e-39
-3552.7266 816.94659 63.6315 7.0529664e-39
-3572.0925 856.92419 64.120102 7.0529664e-39
-3117.843 892.26385 56.606899 7.0529664e-39
-3130.5044 923.09412 56.969646 7.0529664e-39
-3623.3057 969.41711 65.46978 7.0529664e-39
-3132.6272 949.97351 57.139198 7.0529664e-39
680.19873 973.2309 62.227501 7.0529664e-39
-3645.0884 1021.1567 66.074799 7.0529664e-39
-3635.7114 1002.5947 65.830467 7.0529664e-39
-3175.7183 1021.0413 58.227032 7.0529664e-39
-375.20966 1031.5067 57.524704 7.0529664e-39
667.80481 1003.4306 63.169502 7.0529664e-39
-409.15283 1068.5197 59.963924 7.0529664e-39
-399.5564 1067.3494 59.728401 7.0529664e-39
-3704.3035 1148.2665 67.694397 7.0529664e-39
-3723.6826 1190.5691 68.238907 7.0529664e-39
-466.2175 1201.9805 67.565697 7.0529664e-39
-3745.9548 1238.5107 68.867203 7.0529664e-39
-3767.8953 1280.5283 69.463463 7.0529664e-39
-3790.6292 1321.5271 70.071404 7.0529664e-39
-3811.6343 1381.8088 70.769531 7.0529664e-39
-3831.1797 1420.4902 71.322166 7.0529664e-39
-3821.697 1403.8394 71.0662 7.0529664e-39
-1716.6826 1956.8203 45.437302 7.0529664e-39
-1707.2472 1936.4918 45.062099 7.0529664e-39
-1738.7021 2004.1719 46.312866 7.0529664e-39
-1760.9667 2052.7512 47.208748 7.0529664e-39
-1751.144 2030.8687 46.8074 7.0529664e-39
-1777.7263 2088.8428 47.877769 7.0529664e-39
-1805.2583 2152.1907 49.032547 7.0529664e-39
-1799.2371 2134.3936 48.7271 7.0529664e-39
-1822.1714 2186.2712 49.678249 7.0529664e-39
-1846.2538 2239.6851 50.664299 7.0529664e-39
-1836.6562 2217.783 50.262947 7.0529664e-39
-1862.115 2273.8813 51.30135 7.0529664e-39
-1890.667 2338.9497 52.496799 7.0529664e-39
-1880.925 2315.314 52.069298 7.0529664e-39
-1904.1511 2366.6082 53.020401 7.0529664e-39
-1926.226 2413.834 53.904633 7.0529664e-39
-1952.8693 2470.9875 54.975101 7.0529664e-39
-1964.0332 2497.1982 55.455002 7.0529664e-39
-1987.2919 2548.198 56.4062 7.0529664e-39
-1978.7949 2528.1914 56.0397 7.0529664e-39
-2004.4622 2586.3486 57.115936 7.0529664e-39
-2024.1533 2628.4167 57.907101 7.0529664e-39
-1182.7666 2627.2651 50.292004 7.0529664e-39
-2050.5957 2684.9976 58.971699 7.0529664e-39
-2066.8948 2719.0896 59.617401 7.0529664e-39
-2084.9634 2756.833 60.332951 7.0529664e-39
-2119.7258 2834.5273 61.781502 7.0529664e-39
-2104.5242 2800.9365 61.153252 7.0529664e-39
-2130.3076 2859.0684 62.235298 7.0529664e-39
-2153.3511 2907.9634 63.160301 7.0529664e-39
-2169.3594 2944.6157 63.840897 7.0529664e-39
-2195.5615 3000.4219 64.896805 7.0529664e-39
-2215.2163 3041.1631 65.673401 7.0529664e-39
-2234.1714 3083.0049 66.458748 7.0529664e-39
-2257.0464 3130.6235 67.366302 7.0529664e-39
-2282.6868 3186.073 68.413399 7.0529664e-39
-2293.3877 3212.8381 68.9021 7.0529664e-39
-2316.7673 3261.2424 69.827103 7.0529664e-39
-2003.5226 3327.8398 67.802597 7.0529664e-39
-2366.8958 3371.5032 71.9039 7.0529664e-39
-1995.4535 3331.5203 67.785103 7.0529664e-39
-2382.2532 3403.4741 72.514702 7.0529664e-39
1152.2405 -1498.6572 99.071945 7.0529664e-39
1136.2441 -1463.6902 97.109375 7.0529664e-39
1117.6426 -1423.5258 94.850204 7.0529664e-39
1094.4053 -1373.6801 92.045876 7.0529664e-39
1077.6827 -1337.4965 90.017799 7.0529664e-39
1082.0688 -1346.7847 90.541199 7.0529664e-39
803.5575 -775.13086 97.679825 7.0529664e-39
813.65155 -797.97211 99.706169 7.0529664e-39
552.97791 -135.77286 90.184502 7.0529664e-39
568.71429 -113.11881 91.866959 7.0529664e-39
589.1955 -130.5136 95.581497 7.0529664e-39
581.95099 -81.216194 93.069817 7.0529664e-39
588.30725 -64.501465 93.741043 7.0529664e-39
338.45746 509.93707 96.937195 7.0529664e-39
-685.38678 1698.9427 96.0103 7.0529664e-39
-670.04095 1703.4423 95.931801 7.0529664e-39
-379.85046 1834.1775 98.167313 7.0529664e-39
-345.40753 1838.5424 98.040207 7.0529664e-39
-333.28336 1848.6182 98.443954 7.0529664e-39
-2257.6768 4763.2334 92.009048 7.0529664e-39
-2245.585 4765.6323 91.956703 7.0529664e-39
-2233.7039 4780.0386 92.096367 7.0529664e-39
