# .PCD v0.7 - Point Cloud Data file format
VERSION 0.7
FIELDS x y z rgb
SIZE 4 4 4 4
TYPE F F F F
COUNT 1 1 1 1
WIDTH 1086
HEIGHT 1
VIEWPOINT 0 0 0 1 0 0 0
POINTS 1086
DATA ascii
770.65344 -455.93259 -56.895649 7.0529664e-39
843.90619 -476.77545 -50.798584 7.0529664e-39
883.27966 -483.75336 -52.783176 7.0529664e-39
914.87885 -479.62683 -54.137188 7.0529664e-39
-472.59659 -440.06186 -45.159008 7.0529664e-39
-384.64243 -427.14249 -50.309097 7.0529664e-39
-240.95343 -417.48685 -59.202 7.0529664e-39
-207.56731 -438.44052 -59.578522 7.0529664e-39
-102.11468 -410.17538 -66.958565 7.0529664e-39
-67.806778 -423.23148 -67.922356 7.0529664e-39
-23.486414 -440.40982 -69.883041 7.0529664e-39
30.188864 -408.51688 -78.70343 7.0529664e-39
63.870113 -406.29517 -79.967155 7.0529664e-39
160.541 -435.48074 -73.543076 7.0529664e-39
192.16362 -412.76501 -72.124985 7.0529664e-39
312.56372 -448.46713 -67.119553 7.0529664e-39
334.32565 -427.91916 -66.705917 7.0529664e-39
594.94757 -419.69305 -63.702534 7.0529664e-39
781.47644 -426.99762 -62.277599 7.0529664e-39
887.54779 -447.83517 -52.100422 7.0529664e-39
-419.81799 -380.39587 -49.578918 7.0529664e-39
-403.56613 -402.04404 -49.83857 7.0529664e-39
-287.01813 -377.49673 -58.249107 7.0529664e-39
-263.08023 -399.16354 -58.702263 7.0529664e-39
-184.37039 -362.82434 -64.461433 7.0529664e-39
-157.23044 -379.31888 -65.078873 7.0529664e-39
-123.80564 -398.54752 -66.108208 7.0529664e-39
-60.595963 -369.79007 -72.862854 7.0529664e-39
-22.384697 -384.38174 -74.886917 7.0529664e-39
24.059492 -391.49536 -79.95945 7.0529664e-39
64.109261 -386.9762 -81.631477 7.0529664e-39
112.54368 -387.48035 -78.481651 7.0529664e-39
148.86841 -368.2648 -77.230995 7.0529664e-39
214.75835 -396.10779 -71.375526 7.0529664e-39
240.11037 -374.62698 -70.498756 7.0529664e-39
355.72427 -397.52017 -65.501175 7.0529664e-39
373.62485 -375.46045 -65.053299 7.0529664e-39
598.9599 -381.54028 -62.139404 7.0529664e-39
787.89032 -400.4986 -61.80423 7.0529664e-39
-454.53683 -323.81943 -48.829006 7.0529664e-39
-441.58099 -346.39172 -49.108284 7.0529664e-39
-329.23178 -330.11481 -57.263969 7.0529664e-39
-309.06396 -352.7962 -57.593437 7.0529664e-39
-235.55765 -324.39011 -63.508492 7.0529664e-39
-206.85838 -346.63535 -63.966801 7.0529664e-39
-149.70934 -323.63699 -69.340019 7.0529664e-39
-112.75555 -343.90173 -70.403625 7.0529664e-39
-68.262695 -332.57617 -74.772743 7.0529664e-39
-22.775869 -343.42789 -79.671219 7.0529664e-39
20.405317 -335.36658 -84.516731 7.0529664e-39
75.853127 -351.3476 -83.016495 7.0529664e-39
110.37253 -329.89178 -80.371788 7.0529664e-39
170.61348 -351.17416 -75.901527 7.0529664e-39
198.26688 -330.38129 -74.940208 7.0529664e-39
261.43335 -352.42722 -69.50721 7.0529664e-39
287.64362 -331.25378 -69.516846 7.0529664e-39
391.98886 -351.55255 -64.654587 7.0529664e-39
606.81689 -340.53329 -60.885326 7.0529664e-39
-471.48459 -292.40176 -48.555595 7.0529664e-39
-367.30554 -280.00137 -56.715454 7.0529664e-39
-351.8584 -302.24576 -56.96431 7.0529664e-39
-280.20459 -282.66959 -63.057007 7.0529664e-39
-257.63779 -304.27646 -63.164757 7.0529664e-39
-203.08273 -286.87244 -68.389107 7.0529664e-39
-155.73605 -289.3284 -71.114845 7.0529664e-39
-109.58628 -293.23874 -74.009529 7.0526063e-39
-70.0466 -290.11453 -78.00692 7.0529664e-39
-22.909636 -307.9707 -82.822098 7.052965e-39
31.968813 -304.85184 -82.264641 7.0529664e-39
68.273529 -295.18201 -81.263336 7.0529664e-39
107.50778 -284.18433 -79.325325 7.0529664e-39
157.7363 -291.08578 -76.532867 7.0529664e-39
215.92931 -306.04761 -74.309967 7.0529664e-39
244.64638 -288.26834 -73.548225 7.0529664e-39
309.08044 -308.80289 -69.203629 7.0529664e-39
321.17838 -295.68259 -69.150063 7.0529664e-39
439.52637 -288.43643 -64.564003 7.052965e-39
452.36951 -272.83484 -64.864975 7.0529664e-39
-500.5032 -236.05092 -48.41835 7.0529664e-39
-489.2529 -258.39963 -48.41164 7.0529664e-39
-387.74469 -247.5526 -56.51598 7.0529664e-39
-317.61694 -229.0761 -62.02626 7.0529664e-39
-301.43701 -250.62689 -62.12373 7.0529664e-39
-243.08469 -247.37689 -67.484955 7.0529664e-39
-196.97076 -241.26764 -71.313499 7.0529664e-39
-158.10173 -247.07346 -74.141418 7.0529664e-39
-116.73515 -260.35571 -76.526146 7.0529664e-39
120.27924 -265.03549 -78.033966 7.0529664e-39
156.43338 -237.62291 -76.095024 7.0529664e-39
204.2366 -252.81853 -75.131432 7.0529664e-39
245.79933 -246.41414 -74.343971 7.0529664e-39
276.57245 -258.06879 -73.536484 7.0529664e-39
379.41888 -240.07896 -71.140015 7.0529664e-39
449.13681 -231.3206 -62.031502 7.0529664e-39
455.68704 -255.6377 -64.162247 7.0529664e-39
-515.71198 -202.45047 -48.48645 7.0529664e-39
-413.57401 -198.50624 -56.345066 7.0529664e-39
-402.94702 -220.36951 -56.392254 7.0529664e-39
-334.76645 -202.85558 -62.043533 7.0529664e-39
-280.98712 -196.16043 -66.649292 7.0529664e-39
-244.10626 -201.7144 -69.610039 7.0529664e-39
-201.88744 -202.95152 -73.361748 7.0529664e-39
-173.50377 -218.7821 -74.834641 7.0529664e-39
173.52519 -222.61702 -75.637268 7.0529664e-39
195.38681 -206.20197 -76.049446 7.0529664e-39
238.74744 -215.32719 -74.318199 7.0529664e-39
312.20425 -211.5826 -73.311569 7.0529664e-39
325.95166 -196.11116 -73.964897 7.0529664e-39
400.29977 -215.02032 -66.405563 7.0529664e-39
411.70911 -208.86703 -70.38308 7.0529664e-39
-540.83759 -136.78604 -48.807201 7.0529664e-39
-529.76538 -158.07425 -48.380901 7.0529664e-39
-430.70773 -157.34901 -56.32962 6.9607708e-39
-363.2291 -142.53076 -61.805843 7.0529664e-39
-354.00473 -164.09425 -61.820328 7.0529664e-39
-299.39075 -156.18413 -66.816734 7.0529664e-39
-248.40013 -154.76062 -71.562454 7.0529664e-39
-218.00964 -168.69882 -73.890388 7.0529664e-39
509.45224 -156.65515 -65.443832 7.0529664e-39
-548.36536 -112.56589 -48.990597 7.0529664e-39
-453.28159 -99.827148 -56.994244 7.0529664e-39
-445.00754 -121.68736 -56.654903 7.0529664e-39
-374.11176 -112.42964 -61.910046 7.0529664e-39
-324.50961 -108.70833 -66.565086 7.0529664e-39
-285.9436 -115.50375 -69.464706 7.0529664e-39
-249.18309 -112.61134 -73.066978 7.0529664e-39
241.24486 -109.07021 -51.466381 7.0529664e-39
537.284 -92.502411 -66.941101 7.0529664e-39
567.17401 -99.630577 -53.041206 7.0529664e-39
-643.65607 -49.340931 -45.141151 7.0529664e-39
-563.4668 -67.552803 -49.663933 7.0529664e-39
-461.66934 -67.652222 -57.314934 7.0529664e-39
-388.83673 -67.529472 -62.543449 7.0529664e-39
-339.43649 -67.213768 -67.310402 7.0529664e-39
-294.36224 -67.537979 -70.778069 7.0529664e-39
-264.07401 -77.570213 -73.802658 7.0529664e-39
474.2915 -50.350948 -58.563763 7.0529664e-39
531.20648 -76.741623 -65.905922 7.0529664e-39
579.78076 -81.06826 -51.220047 7.0529664e-39
585.4256 -71.259003 -51.596199 7.0529664e-39
-652.28717 -22.453014 -45.648636 7.0529664e-39
-575.15082 -22.395643 -50.370216 7.0529664e-39
-471.93127 -22.522219 -58.034184 7.0529664e-39
-407.40359 -20.424299 -64.607399 7.0529664e-39
-400.44736 -22.722691 -63.561268 7.0529664e-39
-346.42728 -21.94178 -67.825851 7.0529664e-39
-295.02838 -19.685591 -72.742653 7.0529664e-39
393.17706 -11.150225 -48.769642 7.0529664e-39
418.37958 -31.255905 -55.032459 7.0529664e-39
465.41418 -43.996349 -57.400452 7.0529664e-39
-661.60187 22.90568 -46.300411 7.0529664e-39
-586.5694 33.874023 -51.408119 7.0529664e-39
-583.16693 14.155828 -51.041893 7.0529664e-39
-479.73453 22.408775 -58.989361 7.0529664e-39
-406.46515 31.130621 -64.607445 7.0529664e-39
-403.26468 20.621958 -63.981686 7.0529664e-39
-351.81592 22.72699 -68.578484 7.0529664e-39
-294.79095 22.294603 -73.826889 7.0529664e-39
395.90674 3.3920002 -48.613674 7.0529664e-39
-675.19348 79.260048 -47.539047 7.0529664e-39
-671.33942 67.452263 -47.18927 7.0529664e-39
-591.70447 67.714455 -52.117073 7.0529664e-39
-484.11499 67.043663 -60.028996 7.0529664e-39
-407.88013 67.94091 -65.522179 7.0529664e-39
-402.38675 49.696751 -64.216347 7.0529664e-39
-354.83243 67.620575 -70.256416 7.0529664e-39
-293.68787 67.246513 -75.210442 7.0529664e-39
416.93613 60.003933 -51.721352 7.0529664e-39
-679.30292 121.54235 -48.258789 7.0529664e-39
-673.39838 98.792313 -47.593857 7.0529664e-39
-597.16449 112.63923 -53.177769 7.052965e-39
-485.62222 112.15222 -61.216637 7.0529664e-39
-408.01123 111.84931 -67.036301 7.0529664e-39
-404.93265 124.60455 -67.110397 7.0529664e-39
-353.24097 112.44448 -72.10054 7.0529664e-39
-293.1868 109.114 -76.990303 7.0529664e-39
-267.12192 127.13893 -79.27948 7.0529664e-39
-683.48834 157.9048 -49.060707 7.0529664e-39
-601.0611 157.69456 -54.376251 7.0529664e-39
-485.49619 157.38921 -62.684017 7.0529664e-39
-406.2142 149.44551 -68.567459 7.0529664e-39
-403.97559 169.79327 -69.414238 7.0529664e-39
-346.09641 157.6235 -73.966545 7.0529664e-39
-298.19821 157.38625 -77.90712 7.0529664e-39
-259.64288 158.17848 -81.540169 7.0529664e-39
-686.65259 202.98705 -50.076954 7.0529664e-39
-602.79303 202.34348 -55.639763 7.0529664e-39
-482.9809 201.92426 -64.294037 7.0529664e-39
-398.85583 203.02347 -70.916039 7.0529664e-39
-335.34946 203.16527 -76.257095 7.0529664e-39
-283.04559 202.7057 -80.434814 7.0529664e-39
-247.39023 192.56975 -84.026192 7.0529664e-39
-688.36725 247.54323 -51.159821 7.0529664e-39
-602.70929 247.38591 -57.0093 7.0529664e-39
-480.40878 247.46741 -66.370041 7.0529664e-39
-389.67429 248.26543 -73.205315 7.0529664e-39
-321.50818 244.81909 -78.582092 7.0529664e-39
-285.68582 242.39618 -81.497375 7.0529664e-39
-266.65744 243.70372 -83.410286 7.0529664e-39
-690.26367 292.93924 -52.441612 7.0529664e-39
-600.71393 292.75272 -58.474251 7.0529664e-39
-473.60767 292.64264 -68.374237 7.0529664e-39
-377.634 292.56067 -75.687729 7.0529664e-39
-306.40311 291.34775 -82.217484 7.0529664e-39
-799.67871 337.45547 -45.49202 7.0529664e-39
-688.24188 337.19931 -53.598553 7.0529664e-39
-597.70642 337.42365 -60.058239 7.0529664e-39
-464.67657 337.35309 -70.520706 7.052965e-39
-364.78189 326.34592 -77.530045 7.0529664e-39
-354.98315 348.52802 -78.799171 7.0529664e-39
-802.2002 382.44885 -46.578991 7.0529664e-39
-689.01196 382.14542 -55.10014 7.0529664e-39
-592.72662 381.31076 -61.6693 7.0529664e-39
-454.74478 375.97617 -72.457214 7.0529664e-39
-447.73434 398.51108 -73.598 7.0529664e-39
-344.9158 379.57199 -81.248161 7.0529664e-39
-805.86938 427.52417 -47.812317 7.0529664e-39
-687.94293 426.93985 -56.622322 7.0529664e-39
-588.58887 424.73276 -63.508518 7.0529664e-39
-584.00903 446.99548 -64.342697 7.0529664e-39
-439.18781 427.12747 -75.237122 7.0529664e-39
-806.39307 473.20691 -49.004566 7.0529664e-39
-687.0484 471.75439 -58.282909 7.0529664e-39
-581.86835 472.42587 -65.580185 7.0529664e-39
-423.94711 472.72107 -77.980743 7.0529664e-39
-811.63171 508.34631 -50.190201 7.0529664e-39
-804.7702 519.73553 -50.210117 7.0529664e-39
-683.8631 516.96082 -59.95182 7.0529664e-39
-574.94397 517.30518 -67.671913 7.0529664e-39
-413.40353 510.81439 -80.690331 7.0529664e-39
-802.90845 563.612 -51.414394 7.0529664e-39
-680.73956 563.00598 -61.776943 7.0529664e-39
-566.43225 563.28528 -69.895798 7.0529664e-39
-810.13568 627.27411 -53.696701 7.0529664e-39
-805.43896 608.89233 -52.91782 7.0529664e-39
-678.13556 607.22058 -63.655956 7.0529664e-39
-557.40692 608.18982 -72.182373 7.0529664e-39
-339.06192 601.88361 -48.312881 7.0529664e-39
-810.33191 667.0365 -55.0051 7.0529664e-39
-807.38837 651.42999 -54.370899 7.0529664e-39
-676.70117 650.35791 -65.633102 7.0529664e-39
-673.70776 670.7467 -66.477936 7.0529664e-39
-548.9671 653.21478 -74.656158 7.0529664e-39
-333.01044 636.00574 -50.201401 7.0529664e-39
-807.40784 695.33594 -55.845379 7.0529664e-39
-671.1488 697.76599 -67.703636 7.0529664e-39
-542.49774 685.37061 -76.474327 7.0529664e-39
-537.00385 704.59082 -77.50827 7.0529664e-39
-810.56586 745.18524 -57.705639 7.0529664e-39
-807.83826 738.89545 -57.37764 7.0529664e-39
-664.13354 743.25934 -69.703331 7.0529664e-39
-528.69934 741.91766 -79.70961 7.0529664e-39
-810.67859 778.50781 -58.904152 7.0529664e-39
-808.2995 792.97931 -59.344219 7.0529664e-39
-657.00879 787.91339 -71.740662 7.0529664e-39
-520.54681 786.14459 -82.49292 7.0529664e-39
-811.57019 832.86121 -60.945198 7.0529664e-39
-808.8139 826.20752 -60.594601 7.0529664e-39
-651.81281 832.43353 -73.933662 7.0529664e-39
-517.51129 810.1441 -84.105301 7.0529664e-39
-812.07019 897.47559 -63.431198 7.0529664e-39
-809.06873 859.47461 -61.861099 7.0529664e-39
-647.17871 877.60443 -76.252548 7.0529664e-39
-813.20148 929.47034 -64.724609 7.0529664e-39
-809.54291 911.81012 -63.902199 7.0529664e-39
-641.81482 923.30841 -78.632996 7.0529664e-39
-813.203 963.33612 -66.070419 7.0529664e-39
-634.99677 966.32715 -80.857704 7.0529664e-39
-481.66519 964.58582 -75.395744 7.0529664e-39
-811.39886 1018.3185 -68.238602 7.0529664e-39
-807.60229 1003.6473 -67.513367 7.0529664e-39
-634.1377 1008.8934 -83.32798 7.0529664e-39
-627.9635 1027.5677 -84.210014 7.0529664e-39
-811.16241 1052.5566 -69.643456 7.0529664e-39
-809.43915 1073.5222 -70.461662 7.0529664e-39
-626.24023 1037.7207 -84.754097 7.0529664e-39
-806.52924 1100.9563 -71.525795 7.0529664e-39
-803.25751 1146.4987 -73.36628 7.0529664e-39
-801.74469 1192.5594 -75.311447 7.0529664e-39
-799.80768 1234.9135 -77.108299 7.0529664e-39
-796.31445 1283.6257 -79.166855 7.0529664e-39
-793.53748 1316.7632 -80.571198 7.0529664e-39
-742.5014 1464.2841 -86.044052 7.0529664e-39
-698.35535 1454.5247 -84.560616 7.0529664e-39
-1116.0762 1697.7719 -70.950699 7.0529664e-39
-1084.1 2213.248 -86.062195 7.0529664e-39
-1060.9888 2216.645 -85.817902 7.0529664e-39
-1025.4178 2211.3289 -85.119904 7.0529664e-39
-1141.3131 2599.2244 -49.550884 7.0529664e-39
-1313.301 2934.5398 -56.118198 7.0529664e-39
1408.8345 -2084.5095 -43.916069 7.0529664e-39
1350.0135 -1951.1219 -41.4146 7.0529664e-39
936.54669 -1904.5621 -37.046459 7.0529664e-39
1328.3593 -1903.4648 -40.5158 7.0529664e-39
129.63409 -1849.1787 -32.35675 7.0529664e-39
146.98355 -1864.9102 -32.65345 7.0529664e-39
1317.4694 -1878.7483 -40.053299 7.0529664e-39
73.172554 -1808.8241 -31.599329 7.0529664e-39
107.74535 -1828.8857 -31.979162 7.0529664e-39
908.14032 -1807.7349 -35.312035 7.0529664e-39
1292.2166 -1823.9658 -39.017769 7.0529664e-39
35.97858 -1766.9602 -30.84886 7.0529664e-39
49.329575 -1788.0446 -31.222349 7.0529664e-39
910.96704 -1773.389 -34.800102 7.0529664e-39
1266.6604 -1770.155 -37.993904 7.0529664e-39
14.826262 -1728.9119 -30.179562 7.0529664e-39
1251.6219 -1734.7925 -37.339401 7.0529664e-39
-23.775524 -1688.1478 -29.47056 7.0529664e-39
2.3845 -1707.7382 -29.808701 7.0529664e-39
1228.451 -1685.1029 -36.399902 7.0529664e-39
-57.130714 -1637.4899 -28.600124 7.0529664e-39
1221.9573 -1657.6335 -35.946133 7.0529664e-39
-76.756256 -1595.614 -27.883974 7.0529664e-39
1199.2338 -1605.6033 -34.980434 7.0529664e-39
-98.892181 -1547.8822 -27.073687 7.0529664e-39
-87.8479 -1571.3059 -27.4701 7.0529664e-39
1167.5715 -1537.6613 -33.7006 7.0529664e-39
1175.8606 -1556.4678 -34.049652 7.0529664e-39
-117.31522 -1507.082 -26.386101 7.0529664e-39
1154.3013 -1508.1707 -33.150848 7.0529664e-39
-129.6662 -1482.1116 -25.9692 7.0529664e-39
1135.7341 -1469.4767 -32.417847 7.0529664e-39
1111.5272 -1417.2317 -31.438761 7.0529664e-39
1085.2551 -1363.8942 -30.423923 7.0529664e-39
-201.48811 -1324.2086 -23.38039 7.0529664e-39
1065.5245 -1319.5922 -29.605101 7.0529664e-39
-226.9278 -1264.6038 -22.426334 7.0529664e-39
-216.72855 -1288.1279 -22.800602 7.0529664e-39
-52.519878 -1264.932 -44.21072 7.0529664e-39
-34.411602 -1279.4648 -44.696785 7.0529664e-39
663.31494 -1267.734 -24.9744 7.0529664e-39
1048.4537 -1282.0123 -28.908178 7.0529664e-39
-240.42049 -1237.7146 -22.008732 7.0529664e-39
-99.626305 -1223.4098 -42.864357 7.0529664e-39
-73.640755 -1244.6455 -43.541512 7.0529664e-39
669.37836 -1256.7991 -24.855118 7.0529664e-39
687.29932 -1243.356 -24.798409 7.0529664e-39
1025.0815 -1229.4812 -27.941299 7.0529664e-39
1035.6177 -1254.5193 -28.3951 7.0529664e-39
-270.8909 -1172.4285 -21.00395 7.0529664e-39
-260.64066 -1194.5203 -21.341393 7.0529664e-39
-113.75067 -1209.0813 -42.408718 7.0529664e-39
1012.3785 -1200.9875 -27.4177 7.0529664e-39
-282.51358 -1145.9417 -20.601982 7.0529664e-39
-182.72232 -1137.5129 -40.232124 7.0529664e-39
-168.03693 -1158.2131 -40.869987 7.0529664e-39
974.61139 -1145.1893 -26.2484 7.0529664e-39
-303.73053 -1102.8549 -19.967724 7.0529664e-39
-239.60411 -1089.7526 -38.965248 7.0529664e-39
-204.57904 -1103.6276 -39.198444 7.0529664e-39
941.76813 -1083.7623 -25.061701 7.0529664e-39
952.7348 -1105.3423 -25.4718 7.0529664e-39
-325.46393 -1057.853 -19.319824 7.0529664e-39
-279.32062 -1049.7933 -37.935776 7.0529664e-39
-261.82742 -1069.8286 -38.462376 7.0529664e-39
930.81506 -1058.3556 -24.602081 7.0529664e-39
-360.4303 -991.35059 -18.4123 7.0529664e-39
-341.5448 -1009.7699 -22.988379 7.0529664e-39
-301.22849 -1017.0807 -37.044109 7.0529664e-39
908.53424 -1009.8024 -23.710344 7.0529664e-39
-370.58743 -962.01007 -22.281815 7.0529664e-39
-340.15695 -968.66138 -35.854359 7.0529664e-39
887.33386 -963.20673 -22.859753 7.0529664e-39
-407.96344 -907.7124 -17.370968 7.0529664e-39
-387.21075 -925.23535 -27.53161 7.0529664e-39
867.26538 -921.40051 -33.858765 7.0529664e-39
-948.30164 -855.95331 -22.298332 7.0529664e-39
-916.26642 -866.28821 -22.010979 7.0529664e-39
-879.22302 -861.51208 -21.486401 7.0529664e-39
-451.99667 -859.59216 -16.952068 7.0529664e-39
-423.30692 -872.62775 -21.016552 7.052965e-39
-398.92041 -887.43347 -33.977554 7.0529664e-39
844.62689 -871.00671 -32.578838 7.0529664e-39
856.40936 -895.76697 -28.852467 7.0529664e-39
-946.72949 -831.44025 -21.994402 7.0529664e-39
-932.45239 -838.24066 -21.888224 7.0529664e-39
-858.89612 -852.02789 -21.117399 7.0529664e-39
-832.02686 -841.00757 -20.650066 7.0529664e-39
-784.94598 -820.104 -19.81547 7.0529664e-39
-464.67148 -829.3551 -16.595304 7.0529664e-39
-428.40659 -831.64374 -32.671913 7.0529664e-39
826.71259 -831.41986 -30.686928 7.0529664e-39
-953.52234 -784.58258 -21.554701 7.0529664e-39
-941.93921 -803.07153 -21.6061 7.0529664e-39
-741.73419 -801.34509 -19.059958 7.0529664e-39
-697.508 -782.15222 -18.293036 7.0529664e-39
-665.45013 -769.73938 -17.760735 7.0529664e-39
-508.10776 -773.30316 -18.517561 7.0529664e-39
-475.95908 -787.58228 -26.935146 7.0529664e-39
-446.60309 -805.58838 -32.165665 7.0529664e-39
-327.3187 -778.354 -44.25481 7.0529664e-39
-299.17194 -800.25653 -44.778172 7.0529664e-39
803.18457 -779.13824 -30.197338 7.0529664e-39
813.73773 -802.30457 -28.504644 7.0529664e-39
-951.67859 -740.68219 -21.050293 7.0529664e-39
-641.10144 -760.72327 -17.36515 7.0529664e-39
-602.53198 -740.39514 -23.838882 7.0529664e-39
-562.58722 -745.62848 -25.452965 7.0529664e-39
-522.78174 -758.0954 -27.663361 7.0529664e-39
-376.17969 -733.49139 -43.206047 7.0529664e-39
-349.5127 -757.02808 -43.700535 7.0529664e-39
-99.224312 -735.0116 -21.660351 7.0529664e-39
-81.717499 -726.75751 -24.461216 7.0529664e-39
422.89481 -742.5658 -26.104261 7.0529664e-39
785.06152 -741.41791 -28.263065 7.0529664e-39
-948.92395 -696.86481 -20.551178 7.0529664e-39
-943.47729 -693.30652 -20.4368 7.0529664e-39
-634.62842 -682.43384 -32.543755 7.0529664e-39
-621.85547 -706.84552 -32.878479 7.0529664e-39
-417.21106 -692.94952 -42.394066 7.0529664e-39
-398.42694 -714.66949 -42.882172 7.0529664e-39
-95.790764 -717.88867 -37.956627 7.0529664e-39
-78.103569 -718.96246 -19.946356 7.0529664e-39
429.62357 -704.07568 -28.80584 7.0529664e-39
451.79596 -692.6427 -28.886087 7.0529664e-39
758.29004 -685.42548 -28.56109 7.0529664e-39
768.70343 -707.08038 -25.530661 7.0529664e-39
-949.99158 -652.45203 -20.117168 7.0529664e-39
-944.1073 -651.0528 -20.0179 7.0529664e-39
-648.63281 -652.22278 -32.124947 7.0529664e-39
-454.45856 -637.02478 -41.010468 7.0529664e-39
-439.47037 -658.83917 -41.508453 7.0529664e-39
743.81335 -653.14496 -25.54401 7.0529664e-39
-952.44714 -605.39673 -19.700851 7.0529664e-39
-938.74396 -604.60931 -19.490446 7.0529664e-39
-663.37646 -605.80542 -31.374632 7.0529664e-39
-472.85001 -606.15277 -40.297348 7.0529664e-39
727.48193 -608.54773 -24.842598 7.0529664e-39
-949.83026 -561.453 -19.260117 7.0529664e-39
-677.89551 -550.66327 -30.499704 7.0529664e-39
-672.94836 -571.76788 -30.837776 7.0529664e-39
-505.52518 -557.15411 -39.431656 7.0529664e-39
-492.15741 -580.03864 -39.866924 7.0529664e-39
716.57153 -573.30353 -16.018417 7.0529664e-39
744.82239 -559.47192 -22.646336 7.0529664e-39
776.28961 -545.33319 -25.176298 7.0529664e-39
-951.49072 -517.15326 -18.904133 7.0529664e-39
-690.7934 -517.56677 -30.146223 7.0529664e-39
-541.67603 -500.27631 -38.643562 7.0529664e-39
-528.53076 -522.30389 -38.947769 7.0529664e-39
798.26642 -535.073 -25.512045 7.0529664e-39
829.12714 -520.06622 -21.537941 7.0529664e-39
857.23944 -503.3533 -25.462914 7.0529664e-39
-957.20312 -471.54904 -18.626806 7.0529664e-39
-706.80548 -472.03055 -29.684229 7.0529664e-39
-554.45746 -472.07016 -38.169876 7.0529664e-39
757.41345 -471.92343 -25.949324 7.0529664e-39
766.4007 -462.1395 -31.252449 7.0529664e-39
843.50439 -477.31421 -24.541002 7.0529664e-39
885.1554 -472.33014 -29.725882 7.0529664e-39
914.15637 -473.77527 -22.195093 7.0529664e-39
-998.69067 -417.03308 -18.891647 7.0529664e-39
-975.75201 -438.61325 -18.67408 7.0529664e-39
-725.3363 -420.91394 -29.287048 7.0529664e-39
-718.26404 -443.26859 -29.474588 7.0529664e-39
-586.36829 -406.55127 -37.394051 7.0529664e-39
-575.28503 -428.89163 -37.612587 7.0529664e-39
-484.92661 -417.87296 -44.766907 7.0529664e-39
891.96423 -447.92914 -26.136677 7.0529664e-39
-1017.4799 -382.62643 -18.976141 7.0529664e-39
-738.04944 -382.86502 -29.038582 7.0529664e-39
-597.60858 -382.22241 -37.185329 7.052965e-39
-506.58838 -379.71127 -44.280407 7.0529664e-39
-493.48849 -402.5383 -44.53252 7.0529664e-39
-1045.0227 -338.56995 -19.175066 7.0529664e-39
-1030.6847 -349.74301 -18.999849 7.0529664e-39
-769.89972 -323.78638 -29.167276 7.0529664e-39
-752.31598 -346.24628 -28.922186 7.0529664e-39
-630.51788 -315.4646 -36.9492 7.0529664e-39
-618.48761 -337.03638 -36.921001 7.0529664e-39
-541.2774 -315.41049 -43.807098 7.0529664e-39
-528.29785 -337.17001 -43.835613 7.0529664e-39
-1085.4946 -279.211 -19.56415 7.0529664e-39
-1058.1978 -287.93549 -19.143236 7.0529664e-39
-1030.1195 -305.99057 -18.757442 7.0529664e-39
-787.21204 -291.88852 -29.323002 7.0529664e-39
-639.13611 -291.0441 -36.812302 7.0529664e-39
-627.9823 -311.5965 -36.739799 7.0529664e-39
-551.94653 -291.99759 -43.675327 7.0529664e-39
-538.25281 -314.65561 -43.597801 7.0529664e-39
-1087.2512 -231.78101 -19.404572 7.0529664e-39
-1060.3994 -250.4193 -19.019251 7.0529664e-39
-811.13043 -231.34436 -29.455202 7.0529664e-39
-803.93896 -252.20439 -29.425882 7.0529664e-39
-657.29926 -247.28264 -36.811447 7.0529664e-39
-573.20679 -247.67299 -43.675331 7.0529664e-39
-1101.62 -202.62555 -19.55298 7.0529664e-39
-819.90778 -202.57591 -29.496643 7.0529664e-39
-678.52307 -189.59537 -36.922997 7.0529664e-39
-670.38495 -211.44821 -36.842308 7.0529664e-39
-592.75171 -200.15323 -43.757008 7.0529664e-39
-583.79767 -222.25378 -43.681519 7.0529664e-39
399.6507 -193.06378 -29.893663 7.0529664e-39
419.2774 -201.31888 -21.477942 7.0529664e-39
-1135.6691 -142.14429 -19.978016 7.0529664e-39
-1118.1938 -163.46039 -19.726358 7.0529664e-39
-834.77545 -158.03925 -29.672483 7.0529664e-39
-688.47729 -158.25182 -37.029716 7.0529664e-39
-608.21967 -157.73489 -43.948212 7.0529664e-39
402.93045 -160.99706 -22.73995 7.0529664e-39
432.19083 -165.75391 -22.188019 7.0529664e-39
462.15244 -155.56766 -25.563597 7.0529664e-39
519.08691 -151.01656 -23.422813 7.0526063e-39
547.42334 -138.30414 -20.916857 7.0529664e-39
-1135.1531 -116.95845 -19.920183 7.0529664e-39
-1122.9839 -102.51359 -19.68383 7.0529664e-39
-847.22186 -113.27921 -29.852606 7.0529664e-39
-704.62396 -112.66034 -37.403679 7.0529664e-39
-630.8136 -91.688431 -44.574402 7.0529664e-39
-622.12885 -113.92783 -44.236053 7.0529664e-39
106.74085 -92.358452 -22.356499 7.0529664e-39
242.09077 -106.53185 -22.593382 7.0529664e-39
567.19037 -111.96369 -24.446659 7.0529664e-39
585.21204 -132.5811 -20.96265 7.0529664e-39
-1097.4258 -78.99781 -19.20541 7.0529664e-39
-1056.8271 -59.38929 -18.476288 7.0529664e-39
-1032.6945 -48.702049 -18.045799 7.0529664e-39
-855.89905 -56.648952 -29.955435 7.0529664e-39
-853.01501 -71.119316 -29.894354 7.0529664e-39
-723.89941 -51.671169 -38.035152 7.0529664e-39
-715.5545 -74.243484 -37.704922 7.0529664e-39
-634.84723 -71.548187 -44.680073 7.0529664e-39
99.634918 -78.754272 -19.97953 7.0529664e-39
435.58896 -46.519333 -15.297634 7.0529664e-39
476.64709 -51.866554 -33.754585 7.052965e-39
522.7373 -47.80365 -9.1625252 7.0529664e-39
578.73694 -79.53199 -24.339594 7.0529664e-39
586.67529 -64.637352 -15.455519 7.0529664e-39
-1008.7056 -37.259121 -17.619179 7.0529664e-39
-974.83643 -13.869689 -17.018152 7.0529664e-39
-861.32849 -22.715454 -30.092402 7.0529664e-39
-734.63403 -22.012302 -38.523746 7.0529664e-39
15.881815 -4.1500077 -3.2091806 7.0529664e-39
394.53778 -7.0036831 -21.446848 7.0529664e-39
433.80838 -29.052917 -22.580942 7.0529664e-39
459.06952 -27.644138 -28.271713 7.0529664e-39
507.80423 -20.199171 -8.8708296 7.0529664e-39
-953.91907 11.465306 -16.652279 7.0529664e-39
-934.88275 33.939114 -16.329628 7.0529664e-39
-871.97662 22.662069 -30.46369 7.0529664e-39
-751.71875 22.766335 -39.41975 7.0529664e-39
-6.6266418 23.70266 -4.4606204 7.0529664e-39
11.583473 18.882427 -3.0187917 7.0529664e-39
58.106594 33.778908 -3.4156625 7.0529664e-39
379.09943 27.180042 -21.129623 7.0529664e-39
426.27875 15.545204 -28.619301 7.0529664e-39
480.95676 16.907892 -12.346098 7.0529664e-39
-915.76025 67.840729 -16.030041 7.0529664e-39
-879.1543 67.576591 -30.794634 7.0529664e-39
-769.64923 79.20829 -40.549911 7.0529664e-39
-760.79102 57.000195 -39.984665 7.0529664e-39
-5.7284327 51.721497 -2.7572136 7.0529664e-39
39.851719 49.876759 -1.1146717 7.0529664e-39
57.7188 46.2911 -1.2915 7.0529664e-39
399.04074 77.382103 -29.466314 7.0526063e-39
415.34106 62.100151 -19.195288 7.0529664e-39
458.71063 70.669937 -16.212303 7.0529664e-39
-904.89032 111.80103 -15.91658 7.0529664e-39
-883.71887 113.13134 -30.567249 7.0529664e-39
-777.12054 112.53139 -41.15733 7.0529664e-39
345.42914 109.68403 -18.532091 7.0529664e-39
387.65274 97.744568 -24.476696 7.052965e-39
432.42596 104.47012 -16.121801 7.0529664e-39
-900.92523 152.19609 -15.949752 7.0529664e-39
-896.04547 158.63216 -25.618328 7.0529664e-39
-784.54254 157.40427 -41.940296 7.0529664e-39
-29.146587 140.97853 -3.1477625 7.0529664e-39
-906.10083 203.42343 -23.955227 7.0529664e-39
-899.28986 183.37202 -28.042326 7.0529664e-39
-788.95605 201.933 -42.685207 7.0529664e-39
-920.60034 246.62952 -24.762476 7.0529664e-39
-793.13715 247.20963 -43.543533 7.0529664e-39
-98.595322 235.91673 -14.066283 7.0529664e-39
-79.933273 241.80779 -9.1272688 7.0529664e-39
-40.7682 238.50391 -4.2234998 7.0529664e-39
-949.10773 305.99612 -17.406588 7.0529664e-39
-935.53381 289.24158 -28.176128 7.0529664e-39
-796.31171 292.46835 -44.463146 7.0529664e-39
-959.85828 339.48346 -21.292955 7.0529664e-39
-942.7373 335.66464 -34.947971 7.0529664e-39
-97.150398 334.55655 -15.652883 7.0529664e-39
-68.5317 330.92691 -5.8989 7.0529664e-39
-992.34369 401.08813 -18.6828 7.0529664e-39
-965.47028 382.79028 -27.081089 7.0529664e-39
-943.79193 365.82452 -35.347385 7.0529664e-39
-91.585327 398.35776 -14.2739 7.0529664e-39
-86.188545 396.26233 -14.161445 7.0529664e-39
-1005.0401 427.40573 -19.064194 7.0529664e-39
-959.93738 426.49579 -36.683075 7.0529664e-39
-1024.0986 470.8783 -19.675413 7.0529664e-39
-968.25018 473.61963 -37.642944 7.0529664e-39
-110.34775 466.9808 -25.1474 7.0529664e-39
-1044.8546 517.56464 -20.353611 7.0529664e-39
-963.33594 518.04645 -38.198326 7.0529664e-39
-1065.7119 563.42554 -21.042223 7.0529664e-39
-971.6441 565.0119 -39.251637 7.0529664e-39
-144.17845 557.13867 -25.595852 7.0529664e-39
-132.48949 554.48889 -22.742346 7.0529664e-39
-1087.7336 611.77966 -21.783764 7.0529664e-39
-1077.2258 588.46301 -21.425766 7.0529664e-39
-980.73047 609.99713 -40.33353 7.0529664e-39
-340.42676 606.83154 -24.386198 7.0529664e-39
-171.42818 623.65662 -30.825848 7.0529664e-39
-1107.1465 652.82104 -22.435074 7.0529664e-39
-986.21021 649.77393 -41.243145 7.0529664e-39
-332.69336 633.04712 -29.967859 7.0529664e-39
-1133.3407 707.55426 -23.321386 7.0529664e-39
-1121.0588 683.12708 -22.915022 7.0529664e-39
-993.33594 691.31543 -42.263302 7.0529664e-39
-1150.4092 743.35773 -23.908201 7.0529664e-39
-1174.7407 796.98987 -24.778921 7.0529664e-39
-1165.5668 776.94427 -24.4508 7.0529664e-39
-1191.0311 831.84259 -25.358347 7.0529664e-39
-1217.8531 892.31921 -26.353149 7.0529664e-39
-1208.2809 870.73712 -25.996616 7.0529664e-39
-1231.577 920.81317 -26.841801 7.0529664e-39
-1250.6177 964.15186 -27.563911 7.0529664e-39
-1271.1481 1010.66 -28.346567 7.0529664e-39
-1292.575 1059.5718 -29.173876 7.0529664e-39
-1316.7659 1111.0824 -30.073418 7.0529664e-39
-1303.9464 1084.0958 -29.5993 7.0529664e-39
-1333.9324 1149.2452 -30.733685 7.0529664e-39
-1356.6382 1197.0027 -31.580124 7.0529664e-39
-1347.6437 1177.7007 -31.239799 7.0529664e-39
-1377.4287 1238.5449 -32.333488 7.0529664e-39
-1400.6155 1291.5491 -33.25555 7.0529664e-39
-1389.311 1267.1377 -32.822166 7.0529664e-39
-1417.2561 1325.7761 -33.875118 7.0529664e-39
-1444.0134 1385.2559 -34.92807 7.0529664e-39
-1434.6013 1365.6799 -34.5732 7.0529664e-39
-1457.0006 1413.4338 -35.432777 7.0529664e-39
-1489.6708 1483.9619 -36.7024 7.0529664e-39
-1477.5028 1458.1696 -36.234699 7.0529664e-39
-1497.9673 1505.3481 -37.068924 7.0529664e-39
-1517.4979 1550.4115 -37.868221 7.0529664e-39
-1539.7461 1599.6943 -38.755966 7.0529664e-39
-1526.8751 1575.0627 -38.2906 7.0529664e-39
-1550.9769 1635.3334 -39.341221 7.0529664e-39
-1578.2693 1706.7644 -40.576801 7.0529664e-39
-1567.7301 1677.989 -40.083801 7.0529664e-39
-1580.1855 1717.2385 -40.733948 7.0529664e-39
-1574.6362 1719.6187 -40.699001 7.0529664e-39
5800.1802 -13301.393 0 7.0529664e-39
1297.5225 -4612.9927 0 7.0529664e-39
1255.897 -4531.6904 0 7.0529664e-39
1209.139 -4432.022 0 7.0529664e-39
1218.1969 -4434.7261 0 7.0529664e-39
1169.713 -4341.1733 0 7.0529664e-39
1178.0735 -4342.0205 0 7.0529664e-39
1094.0173 -4161.2554 0 7.0529664e-39
1050.0195 -4072.8201 0 7.0529664e-39
1006.2233 -3980.4507 0 7.0529664e-39
962.79181 -3887.5515 0 7.0529664e-39
929.06952 -3798.6997 0 7.0529664e-39
885.12823 -3709.6077 0 7.0529664e-39
841.64563 -3615.3201 0 7.0529664e-39
797.24829 -3524.2808 0 7.0529664e-39
811.35553 -3534.0598 0 7.0529664e-39
755.18988 -3426.2551 0 7.0529664e-39
707.5025 -3334.2622 0 7.0529664e-39
714.1225 -3328.2495 0 7.0529664e-39
669.21759 -3254.4045 0 7.0529664e-39
679.43744 -3252.2856 0 7.0529664e-39
626.76349 -3162.49 0 7.0529664e-39
639.25574 -3158.9675 0 7.0529664e-39
581.28125 -3070.4614 0 7.0529664e-39
596.02625 -3069.1567 0 7.0529664e-39
534.90906 -2978.8535 0 7.0529664e-39
550.20667 -2979.2812 0 7.0529664e-39
469.23615 -2916.4897 0 7.0529664e-39
401.47519 -2683.1299 0 7.0529664e-39
416.3349 -2680.1013 0 7.0529664e-39
378.95395 -2614.8767 0 7.0529664e-39
329.13965 -2521.6079 0 7.0529664e-39
345.65784 -2517.625 0 7.0529664e-39
282.5239 -2430.6355 0 7.0529664e-39
1167.1311 -2456.8677 0 7.0529664e-39
1173.135 -2455.1162 0 7.0529664e-39
298.55505 -2426.8599 0 7.0529664e-39
252.66374 -2326.8035 0 7.0529664e-39
1133.8363 -2285.1091 44.526867 7.0529664e-39
208.85027 -2233.011 0 7.0529664e-39
-62.916653 -2167.8452 37.856209 7.0529664e-39
-44.783901 -2174.2075 37.959 7.0529664e-39
165.38751 -2152.5142 0 7.0529664e-39
181.4955 -2152.3613 0 7.0529664e-39
1409.5568 -2084.4551 21.950775 7.0529664e-39
121.81551 -2054.249 0 7.0529664e-39
138.7653 -2051.311 0 7.0529664e-39
1392.9391 -2038.9255 21.492649 7.0529664e-39
1403.521 -2061.3621 21.69335 7.0529664e-39
1373.4413 -1998.4187 14.043367 7.0529664e-39
76.813087 -1962.6256 0 7.0529664e-39
95.367249 -1958.6768 0 7.0529664e-39
1353.9723 -1959.7661 0 7.0529664e-39
934.32837 -1904.6757 0 7.0529664e-39
1339.2344 -1922.3783 13.711767 7.0529664e-39
-136.33549 -1883.5719 0 7.0529664e-39
32.293839 -1871.3341 0 7.0529664e-39
52.804424 -1870.0017 0 7.0529664e-39
936.01416 -1886.0024 0 7.0529664e-39
1315.282 -1871.4961 15.98292 7.0529664e-39
-2121.9619 -1805.2871 0 7.0529664e-39
909.05536 -1807.6871 20.182472 7.0529664e-39
1291.9924 -1819.8384 19.488518 7.0529664e-39
-2136.7878 -1782.2207 0 7.0529664e-39
-9.43085 -1791.1321 0 7.0529664e-39
8.7464008 -1789.4697 0 7.0529664e-39
919.12646 -1788.7554 16.224016 7.0529664e-39
1271.2401 -1779.5836 0 7.0529664e-39
-2165.5193 -1733.6674 0 7.0529664e-39
-2147.0828 -1743.5288 0 7.0529664e-39
1252.158 -1737.7886 23.377487 7.0529664e-39
-54.625889 -1691.1099 0 7.0529664e-39
-36.899639 -1688.3896 0 7.0529664e-39
1230.5638 -1686.6885 14.555301 7.0529664e-39
1210.0325 -1626.6377 17.731649 7.0529664e-39
1222.5881 -1658.6353 20.5415 7.0529664e-39
-97.010437 -1599.8574 0 7.0529664e-39
-78.29612 -1598.6965 0 7.0529664e-39
1196.9011 -1600.4174 14.014279 7.0529664e-39
1165.3115 -1533.7634 11.198634 7.0529664e-39
1178.4454 -1559.6753 20.454222 7.0529664e-39
-2241.4014 -1492.7635 0 7.0529664e-39
-137.96664 -1508.7043 0 7.0529664e-39
-122.68143 -1506.1074 0 7.0529664e-39
1153.2491 -1505.4707 19.88526 7.0529664e-39
-2250.573 -1471.6121 0 7.0529664e-39
-2247.1357 -1479.2772 0 7.0529664e-39
-1891.6793 -1446.0381 20.7771 7.0529664e-39
-1889.2255 -1450.1787 41.571648 7.0529664e-39
-256.88812 -1444.1047 25.602667 7.0529664e-39
1124.2518 -1445.2054 0 7.0529664e-39
1134.5945 -1466.531 16.187117 7.0529664e-39
-2208.4519 -1402.2035 0 7.0529664e-39
-2201.2036 -1422.4056 0 7.0529664e-39
-1901.9664 -1428.2316 19.169447 7.0529664e-39
-279.46674 -1410.4442 25.098303 7.0529664e-39
-264.90005 -1435.741 25.48402 7.0529664e-39
1111.193 -1416.0496 15.72025 7.0529664e-39
-2222.457 -1371.0203 0 7.0529664e-39
-300.59155 -1370.5656 24.492437 7.0529664e-39
-201.1925 -1359.1899 0 7.0529664e-39
1090.5824 -1370.7993 17.51223 7.0529664e-39
-2250.5715 -1309.8639 0 7.0529664e-39
-2242.1489 -1329.4169 0 7.0529664e-39
-2154.418 -1309.3914 44.006248 7.0529664e-39
-1982.2634 -1334.5381 41.7113 7.0529664e-39
-1963.6124 -1334.899 35.525631 7.0529664e-39
-322.81818 -1323.0614 23.77191 7.0529664e-39
-313.53159 -1346.262 24.127951 7.0529664e-39
-228.44722 -1313.8842 0 7.0529664e-39
-211.20164 -1323.7839 0 7.0529664e-39
1069.5231 -1325.2555 13.199834 7.0529664e-39
-2257.8269 -1295.2927 0 7.0529664e-39
-2170.7871 -1279.5667 43.98444 7.0529664e-39
-2157.874 -1299.4906 43.968437 7.0529664e-39
-337.9212 -1282.7418 23.154593 7.0529664e-39
-239.647 -1285.6188 0 7.0529664e-39
666.60309 -1271.9791 15.061419 7.0529664e-39
1049.3179 -1279.7839 16.06979 7.0529664e-39
-2280.3862 -1223.7574 0 7.0529664e-39
-2206.71 -1218.1693 43.997501 7.0529664e-39
-2195.4753 -1234.2036 27.509361 7.0529664e-39
-361.03235 -1216.8788 22.155849 7.0529664e-39
-352.76498 -1240.6051 22.513601 7.0529664e-39
-271.6785 -1219.0936 0 7.0529664e-39
-255.54285 -1232.7601 0 7.0529664e-39
668.98022 -1255.6201 11.2806 7.0529664e-39
687.28625 -1242.4324 12.884073 7.0529664e-39
1028.1477 -1234.9318 10.519425 7.0529664e-39
-2208.9121 -1200.9078 27.450462 7.0529664e-39
-2201.5413 -1208.3051 0 7.0529664e-39
-369.07739 -1191.4302 21.771866 7.0529664e-39
-281.56522 -1195.1722 0 7.0529664e-39
1010.4132 -1195.9799 0 7.0529664e-39
-954.44995 -1132.1272 25.847025 7.0529664e-39
-940.59497 -1126.1351 25.611401 7.0529664e-39
-384.39273 -1147.6205 21.126135 7.0529664e-39
-299.63965 -1141.1006 0 7.0529664e-39
964.12628 -1139.3239 22.311644 7.0529664e-39
-916.49646 -1116.4999 25.213743 7.0529664e-39
-876.19989 -1098.0228 24.520622 7.0529664e-39
-844.42889 -1083.6166 23.979599 7.0529664e-39
-408.19537 -1091.1294 20.334984 7.0529664e-39
-398.65433 -1112.2172 20.623522 7.0529664e-39
-324.76141 -1102.1193 0 7.0529664e-39
-314.491 -1124.8643 0 7.0529664e-39
943.74829 -1083.3647 25.0791 7.0529664e-39
954.14288 -1107.3453 11.594745 7.0529664e-39
-2501.8481 -1077.4631 0 7.0529664e-39
-828.72699 -1057.9766 10.131122 7.0529664e-39
-786.30072 -1058.9576 23.022902 7.0529664e-39
-747.14301 -1040.6508 22.361528 7.0529664e-39
-420.33704 -1058.2456 19.876238 7.0529664e-39
-341.38821 -1050.0164 0 7.0529664e-39
932.21594 -1058.9366 11.191747 7.0529664e-39
-1138.4191 -993.55542 15.061429 7.0529664e-39
-765.15411 -1016.1315 0 7.0529664e-39
-737.67993 -1010.4097 4.7246146 7.0529664e-39
-699.86621 -1015.9815 18.689199 7.0529664e-39
-651.03949 -999.08392 20.815355 7.0529664e-39
-436.45096 -1010.1242 19.20792 7.0529664e-39
-366.2619 -1010.5729 0 7.0529664e-39
-357.30286 -1032.418 0 7.0529664e-39
911.54144 -1014.2162 12.804692 7.0529664e-39
-1145.8914 -985.19525 15.387199 7.0529664e-39
-1089.293 -966.69482 12.72803 7.0529664e-39
-1049.5049 -950.73511 13.329617 7.0529664e-39
-1034.3239 -946.45563 0 7.0529664e-39
-686.9613 -980.22278 0 7.0529664e-39
-651.34796 -964.67285 0 7.0529664e-39
-611.87762 -970.57471 13.09629 7.0529664e-39
-562.61481 -961.39117 19.444487 7.0529664e-39
-531.62543 -948.25769 18.975758 7.0529664e-39
-455.86911 -959.34882 18.540276 7.0529664e-39
-447.43124 -980.39014 18.810783 7.0529664e-39
-382.82608 -963.67462 0 7.0529664e-39
890.38501 -968.086 10.580193 7.0529664e-39
-2668.791 -931.57532 0 7.0529664e-39
-1005.6262 -932.18396 11.991267 7.0529664e-39
-957.73438 -910.21069 11.518588 7.0529664e-39
-941.22083 -908.13385 11.3964 7.0529664e-39
-596.47046 -940.68518 0 7.0529664e-39
-568.81866 -928.21973 0 7.0529664e-39
-512.8808 -922.5592 9.3082399 7.0529664e-39
-473.15399 -929.74371 18.210201 7.0529664e-39
-409.87927 -913.51904 0 7.0529664e-39
-400.88821 -934.37311 0 7.0529664e-39
869.33398 -922.39758 10.331827 7.0529664e-39
-2701.3931 -860.04694 0 7.0529664e-39
-2690.6257 -879.34314 0 7.0529664e-39
-906.23553 -882.84003 8.2615376 7.0529664e-39
-878.58386 -875.43359 10.862184 7.0529664e-39
-848.11328 -864.04639 15.835888 7.0529664e-39
-495.6199 -855.67749 17.260401 7.0529664e-39
-468.29468 -887.26056 0 7.0529664e-39
-426.65564 -877.67908 0 7.0529664e-39
846.93933 -874.40405 10.627265 7.0529664e-39
857.63177 -898.08789 21.6759 7.0529664e-39
-2714.8604 -831.39258 0 7.0529664e-39
-819.01434 -849.36804 8.5604 7.0529664e-39
-780.19409 -832.29718 9.976676 7.0529664e-39
-748.92487 -821.05725 11.142115 7.0529664e-39
-499.80157 -847.62158 8.5793171 7.0529664e-39
-459.27905 -823.90765 2.8622003 7.0529664e-39
-447.75696 -816.82642 0 7.0529664e-39
827.99091 -832.9433 10.256563 7.0529664e-39
-2731.9773 -789.85657 0 7.0529664e-39
-725.47107 -804.1142 7.898675 7.0529664e-39
-692.4563 -791.69568 10.502196 7.0529664e-39
-652.07648 -779.64667 1.8080701 7.0529664e-39
-594.32654 -772.88721 0 7.0529664e-39
-568.99255 -770.53394 0 7.0529664e-39
-537.36292 -765.15759 0 7.0529664e-39
-480.47803 -793.14966 0 7.0529664e-39
803.26514 -779.58954 8.8800907 7.0529664e-39
814.07452 -802.99884 11.393943 7.0529664e-39
-2754.0398 -739.33832 0 7.0529664e-39
-2742.5786 -760.23962 0 7.0529664e-39
-586.94104 -758.1889 0 7.0529664e-39
-556.32025 -762.47797 0 7.0529664e-39
-538.36536 -762.61688 0 7.0529664e-39
-100.39701 -736.53149 11.920382 7.0529664e-39
-77.931007 -724.78955 17.689548 7.0529664e-39
422.59863 -738.43597 17.804762 7.0529664e-39
786.48315 -743.08539 9.44524 7.0529664e-39
-2773.218 -699.85889 0 7.0529664e-39
-92.930054 -717.30634 29.46685 7.0529664e-39
-80.029129 -709.29053 15.343321 7.0529664e-39
430.34351 -703.01117 18.973225 7.0529664e-39
452.19678 -692.05609 23.09993 7.0529664e-39
759.69647 -685.14551 8.1153736 7.0529664e-39
770.96033 -708.93628 9.9732637 7.0529664e-39
-2797.0381 -647.3587 0 7.0529664e-39
-2787.7273 -668.07275 0 7.0529664e-39
743.90149 -651.17432 9.0137835 7.0529664e-39
-2814.4143 -606.68243 0 7.0529664e-39
715.55273 -593.40094 8.1211758 7.0529664e-39
725.85822 -615.51459 7.6656308 7.0529664e-39
-2838.9465 -548.75201 0 7.0529664e-39
-2830.3062 -572.33087 0 7.0529664e-39
711.86438 -569.69714 8.5223789 7.0529664e-39
742.62469 -555.80493 8.0986805 7.0529664e-39
774.59021 -544.98663 7.5108871 7.0529664e-39
-2850.3513 -529.92291 0 7.0529664e-39
796.75787 -534.76562 8.3690538 7.0529664e-39
830.20483 -519.37939 8.7930183 7.0529664e-39
859.45422 -502.24445 8.0932541 7.0529664e-39
-2513.771 -453.81247 29.733068 7.0529664e-39
760.98926 -471.24011 9.1130753 7.0529664e-39
767.23633 -469.51904 0 7.0529664e-39
844.08905 -480.99744 7.0522261 7.0529664e-39
883.79456 -481.32217 6.6999164 7.0529664e-39
921.67645 -473.98135 11.883996 7.0529664e-39
-2524.3618 -416.09109 22.315088 7.0529664e-39
-2514.7344 -437.22754 22.266369 7.0529664e-39
-2530.8123 -404.91739 0 7.0529664e-39
-1503.6188 -235.12874 11.784256 7.0529664e-39
-1483.5428 -226.74899 26.1961 7.0529664e-39
-1473.551 -218.87143 13.00785 7.0529664e-39
-1424.033 -202.38136 11.19669 7.0529664e-39
-1380.1721 -186.40437 17.382601 7.0529664e-39
424.48138 -195.81436 17.665207 6.9607708e-39
-1363.7356 -177.68535 8.0862675 7.0529664e-39
-1327.9103 -164.48164 11.719292 7.0529664e-39
-1282.5454 -144.60472 10.43117 7.0529664e-39
429.97409 -167.86188 18.280798 7.0529664e-39
462.17099 -155.14284 20.197392 7.0529664e-39
518.97717 -150.66147 12.376059 7.0529664e-39
546.97748 -138.37468 12.803161 7.0529664e-39
-1236.3677 -123.0619 11.506259 7.0529664e-39
-1188.1906 -101.36945 9.6779461 7.0529664e-39
-1159.1743 -92.043297 20.2971 7.0529664e-39
567.26953 -113.13967 13.342303 7.0529664e-39
587.31573 -131.42245 31.541134 7.0529664e-39
-1148.7926 -81.253372 8.7872868 7.0529664e-39
-1092.0577 -62.29224 10.763762 7.0529664e-39
-1056.2775 -49.076561 9.2475996 7.0529664e-39
524.60925 -47.409344 11.503088 7.0529664e-39
579.47321 -78.105515 13.20628 7.0529664e-39
586.94104 -62.33289 14.682957 7.0529664e-39
-1154.1377 -7.1893001 0 7.0529664e-39
-1053.8721 -39.176929 9.911623 7.0529664e-39
-1011.6097 -23.268831 5.9144278 7.0529664e-39
398.35016 -5.5801611 6.2663407 7.0529664e-39
431.8627 -14.731327 9.4368353 7.0529664e-39
467.8576 -4.2476339 40.934151 7.0529664e-39
512.72772 -27.499222 19.048166 7.0529664e-39
-1138.3206 29.684711 0 7.0529664e-39
-967.32532 10.919271 0 7.0529664e-39
-1.2301259 42.826313 0.39154357 7.0529664e-39
1.370504 4.5056677 0.25402337 7.0529664e-39
56.46312 32.850971 4.8331566 7.0529664e-39
381.50208 32.044655 6.2196426 7.0529664e-39
434.30981 19.181133 19.812977 7.0529664e-39
-1143.3943 65.090836 0 7.0529664e-39
-926.6618 62.951942 0 7.0529664e-39
-2.900177 46.586346 0.26178184 7.0529664e-39
42.460182 56.179661 2.8711402 7.0529664e-39
50.257874 52.522858 5.6553006 7.0529664e-39
401.7363 82.935135 5.3833275 7.0529664e-39
415.12622 64.534103 19.20624 7.0529664e-39
-1177.9413 114.56775 0 7.0529664e-39
-1157.0437 107.98092 0 7.0529664e-39
-907.39062 105.4705 0 7.0529664e-39
-29.8641 134.7083 2.4084001 7.0529664e-39
88.204239 127.75699 2.7099674 7.0529664e-39
90.442802 127.0775 2.7226 7.0529664e-39
386.67438 113.97832 15.887517 7.0529664e-39
427.47949 120.69264 17.745188 7.0529664e-39
-1217.8138 160.09952 0 7.0529664e-39
-1206.5762 158.41484 0 7.0529664e-39
-907.03711 168.36382 0 7.0529664e-39
-31.573652 140.78401 2.01226 7.0529664e-39
-1218.4446 201.38446 0 7.0529664e-39
-1207.2212 196.66238 0 7.0529664e-39
-49.241474 218.31409 35.448055 7.0529664e-39
-44.241951 217.02518 35.080425 7.0529664e-39
-1236.3755 257.67896 0 7.0529664e-39
-1207.439 251.62212 0 7.0529664e-39
-992.69751 243.70413 17.842199 7.0529664e-39
-982.15472 242.79398 11.86475 7.0529664e-39
-925.27686 231.12883 0 7.0529664e-39
-91.324791 240.62558 7.68082 7.0529664e-39
-75.837044 240.32938 14.269828 7.0529664e-39
-29.215277 246.11366 6.2669048 7.0529664e-39
-1222.9257 281.84503 0 7.0529664e-39
-1212.4485 312.2063 0 7.0529664e-39
-966.45508 308.12985 0 7.0529664e-39
-73.228935 314.07651 16.904516 7.0529664e-39
-1329.106 352.28027 0 7.0529664e-39
-1277.1321 354.79486 0 7.0529664e-39
-1238.5411 334.66904 0 7.0529664e-39
-957.15881 316.08594 0 7.0529664e-39
-95.745087 342.26627 3.1217937 7.0529664e-39
-78.954994 319.34372 15.227751 7.0529664e-39
-1314.6654 374.47418 0 7.0529664e-39
-1293.9746 386.52603 0 7.0529664e-39
-1003.05 398.23251 0 7.0529664e-39
215.48352 380.54819 38.261379 7.0529664e-39
234.88704 391.93185 39.977261 7.0529664e-39
-1264.7048 421.20169 0 7.0529664e-39
-998.51355 407.59021 0 7.0529664e-39
-1332.5073 478.28949 0 7.0529664e-39
-1045.4845 487.9314 0 7.0529664e-39
-1038.9523 497.67242 0 7.0529664e-39
353.56107 515.86731 32.777275 7.0529664e-39
-1624.8735 558.96765 0 7.0529664e-39
-1601.5886 566.42908 0 7.0529664e-39
-1562.6675 579.01404 0 7.0529664e-39
-1507.104 575.86511 17.331577 7.0529664e-39
-1092.6123 582.09619 0 7.0529664e-39
380.13278 567.33765 35.790318 7.0529664e-39
-1730.0049 615.44934 32.051323 7.0529664e-39
-1709.3837 600.29279 31.6238 7.0529664e-39
-1573.1973 589.448 0 7.0529664e-39
-1496.1688 612.73975 16.902061 7.0529664e-39
-1470.5057 625.90393 18.589718 7.0529664e-39
-1089.6444 591.8078 0 7.0529664e-39
-1079.4895 597.8783 0 7.0529664e-39
-342.05948 613.41101 15.092732 7.0529664e-39
-163.96248 627.94464 3.2370093 7.0529664e-39
404.827 593.0094 37.629601 7.0529664e-39
-1598.4713 650.78552 30.125341 7.0529664e-39
-1546.9633 667.9209 0 7.0529664e-39
-1525.5394 657.0011 0 7.0529664e-39
-1452.6599 645.94336 25.244116 7.0529664e-39
-1435.1777 652.61865 22.037149 7.0529664e-39
-1130.1589 669.66309 0 7.0529664e-39
-343.569 641.82892 0 7.0529664e-39
-154.89781 632.42975 7.3902245 7.0529664e-39
-1546.5878 680.29388 0 7.0529664e-39
-1493.6423 679.63916 0 7.0529664e-39
-1462.3835 703.00092 25.945904 7.0529664e-39
-1125.9325 675.45911 0 7.0529664e-39
-1122.042 681.89154 0 7.0529664e-39
-1492.892 749.02258 21.203083 7.0529664e-39
-1459.9215 751.65076 4.0788717 7.0529664e-39
-1174.4913 757.34375 0 7.0529664e-39
-1168.3894 763.99036 0 7.0529664e-39
-1502.2899 785.86371 29.59404 7.0529664e-39
-1177.0542 781.73682 0 7.0529664e-39
-1166.5134 769.2749 0 7.0529664e-39
-1516.5444 827.97162 26.396774 7.0529664e-39
-1217.7104 847.75098 0 7.0529664e-39
-1212.3479 854.10779 0 7.0529664e-39
-1538.8286 864.89563 18.527472 7.0529664e-39
-1504.1284 872.39917 17.631527 7.0529664e-39
-1204.896 864.1366 0 7.0529664e-39
-1503.3375 913.15125 30.702654 7.0529664e-39
-1464.1656 918.17664 0 7.0529664e-39
-1260.8225 943.90228 0 7.0529664e-39
-1259.7351 940.34637 0 7.0529664e-39
-1777.9456 983.87738 35.469131 7.0529664e-39
-1250.8588 953.01172 0 7.0529664e-39
-1657.1448 1030.0782 34.05835 7.0529664e-39
-1300.9893 1031.0266 0 7.0529664e-39
-1670.8217 1067.4419 34.608101 7.0529664e-39
-1654.6553 1060.2227 34.303493 7.0529664e-39
-1291.3876 1042.3375 0 7.0529664e-39
-1644.9871 1088.4042 22.880102 7.0529664e-39
-1344.2859 1122.0045 0 7.0529664e-39
-1717.7698 1148.2052 36.065399 7.0529664e-39
-1690.5852 1150.9377 22.100126 7.0529664e-39
-1661.4941 1141.2024 0 7.0529664e-39
-1582.3071 1147.2139 22.676483 7.0529664e-39
-1573.7305 1149.2678 34.014702 7.0529664e-39
-1524.4382 1166.2245 33.5028 7.0529664e-39
-1333.9957 1133.8104 0 7.0529664e-39
-1691.3984 1185.251 36.050869 7.0529664e-39
-1600.4604 1177.1407 0 7.0529664e-39
-1547.567 1209.2614 0 7.0529664e-39
-486.21469 1180.8151 0 7.0529664e-39
-1682.8691 1227.3446 36.357712 7.0529664e-39
-1644.8258 1247.7274 36.037266 7.0529664e-39
-1616.6521 1259.2078 35.7687 7.0529664e-39
-1495.9719 1234.2256 0 7.0529664e-39
-1451.1312 1256.7146 0 7.0529664e-39
-1380.969 1226.6572 0 7.0529664e-39
-1602.4359 1277.0526 35.766964 7.0529664e-39
-1446.7485 1260.7458 0 7.0529664e-39
-1611.3361 1325.6169 36.42099 7.0529664e-39
-1475.0806 1339.7205 0 7.0529664e-39
-1427.9645 1332.5271 0 7.0529664e-39
-1621.2703 1381.7009 37.182354 7.0529664e-39
-1618.535 1359.4012 36.894363 7.0529664e-39
-1482.7582 1359.4945 0 7.0529664e-39
-1596.6836 1408.3003 37.162876 7.0529664e-39
-1551.0149 1429.1501 36.8144 7.0529664e-39
-1510.5663 1437.1444 0 7.0529664e-39
-1475.7729 1434.373 0 7.0529664e-39
-1508.9075 1450.9668 31.676109 7.0529664e-39
-1470.5262 1447.6123 0 7.0529664e-39
-1515.0194 1507.0377 20.69079 7.0529664e-39
-1539.0944 1557.9702 16.370358 7.0529664e-39
-1527.4749 1533.3516 18.883499 7.0529664e-39
-1556.9294 1596.7386 24.324287 7.0529664e-39
-1581.5449 1652.3516 16.01782 7.0529664e-39
-1570.5625 1626.9397 19.751751 7.0529664e-39
-320.85104 1657.3025 29.4655 7.0529664e-39
-312.69196 1649.3649 29.302551 7.0529664e-39
-1597.2081 1687.5698 20.281887 7.0529664e-39
-684.68298 1698.7549 31.9699 7.0529664e-39
-672.44006 1704.1835 31.978668 7.0529664e-39
-330.78009 1672.85 29.765049 7.0529664e-39
