# .PCD v0.7 - Point Cloud Data file format
VERSION 0.7
FIELDS x y z rgb
SIZE 4 4 4 4
TYPE F F F F
COUNT 1 1 1 1
WIDTH 513
HEIGHT 1
VIEWPOINT 0 0 0 1 0 0 0
POINTS 513
DATA ascii
-276.75732 -2257.25 39.695503 7.0529664e-39
-231.58293 -2255.1265 39.570435 7.0529664e-39
1133.7032 -2285.1753 44.526867 7.0529664e-39
-270.22571 -2249.4822 39.547199 7.0529664e-39
-252.91096 -2244.5579 39.427151 7.0529664e-39
-61.493008 -2167.4031 37.847725 7.0529664e-39
-44.742699 -2172.2083 37.924099 7.0529664e-39
1409.6472 -2082.0525 26.304281 7.0529664e-39
1388.4774 -2027.8201 42.897999 7.0529664e-39
1375.6105 -2004.5481 10.63725 7.0529664e-39
1357.8152 -1961.6761 27.755133 7.0529664e-39
1333.0146 -1908.553 30.484999 7.0529664e-39
1314.6675 -1870.9539 9.9827747 7.0529664e-39
908.99982 -1809.1538 20.194929 7.0529664e-39
1290.4403 -1817.8749 19.450699 7.0529664e-39
918.73816 -1787.1785 15.067663 7.0529664e-39
1251.8855 -1737.09 26.732088 7.0529664e-39
1231.7388 -1689.7914 14.61116 7.0529664e-39
1211.886 -1632.1113 17.70545 7.0529664e-39
1223.014 -1659.386 20.551458 7.0529664e-39
1196.4646 -1598.4994 17.443684 7.0529664e-39
1166.7144 -1535.9847 16.7892 7.0529664e-39
1176.6536 -1556.6803 16.98555 7.0529664e-39
-193.70509 -1491.8442 26.258881 7.0529664e-39
1154.719 -1510.3416 16.562317 7.0529664e-39
-258.09729 -1443.126 25.5896 7.0529664e-39
1135.647 -1468.6678 16.23365 7.0529664e-39
-279.06314 -1412.3522 25.129536 7.0529664e-39
-265.74426 -1433.8577 25.45435 7.0529664e-39
1111.719 -1416.9076 15.746437 7.0529664e-39
-1760.6138 -1368.8539 9.6831675 7.0529664e-39
-1751.3486 -1372.5647 31.02688 7.0529664e-39
1091.8562 -1373.2532 17.524715 7.0529664e-39
-2154.1211 -1309.5557 44.003334 7.0529664e-39
-1966.7173 -1333.4569 32.261745 7.0529664e-39
-1767.5815 -1323.7635 18.34664 7.0529664e-39
-1754.0077 -1333.4604 38.459301 7.0529664e-39
1068.8179 -1323.9381 11.1041 7.0529664e-39
1081.5862 -1348.5925 30.1752 7.0529664e-39
-2174.0593 -1279.1836 44.030235 7.0529664e-39
-2158.5547 -1298.3601 43.968437 7.0529664e-39
-1808.8064 -1266.1914 5.4800577 7.0529664e-39
-1785.5579 -1285.178 21.11043 7.0529664e-39
666.3067 -1271.3069 18.822426 7.0529664e-39
1049.4896 -1280.5046 16.067846 7.0529664e-39
-2206.0205 -1215.2783 43.962601 7.0529664e-39
-2195.5474 -1233.8287 27.498451 7.0529664e-39
-1809.9293 -1254.2806 38.43718 7.0529664e-39
668.70087 -1255.7683 11.282191 7.0529664e-39
686.92126 -1242.6338 12.885468 7.0529664e-39
1026.5332 -1231.0857 9.3312168 7.0529664e-39
1037.7568 -1254.2091 14.215 7.0529664e-39
-2211.1863 -1199.0773 27.448277 7.0529664e-39
963.19995 -1136.8726 22.742651 7.0529664e-39
944.38196 -1084.2839 12.53955 7.0529664e-39
954.10394 -1106.7112 10.17126 7.0529664e-39
931.92053 -1058.1068 12.3214 7.0529664e-39
-1138.1569 -994.23065 13.180925 7.0529664e-39
911.89447 -1014.8295 12.804692 7.0529664e-39
-1147.5867 -984.35004 17.592018 7.0529664e-39
-1088.9106 -967.48157 11.55509 7.0529664e-39
890.99768 -969.19476 10.588246 7.0529664e-39
869.43085 -922.67285 10.338807 7.0529664e-39
846.71051 -873.69867 11.450116 7.0529664e-39
858.16693 -897.70715 10.84665 7.0529664e-39
828.73553 -833.96545 10.266376 7.0529664e-39
803.07745 -778.83331 9.7768402 7.0529664e-39
813.61267 -801.95844 9.9653244 7.0529664e-39
422.81503 -739.23309 17.836159 7.0529664e-39
786.68701 -743.37946 9.4496107 7.0529664e-39
430.35556 -703.04657 18.925968 7.0529664e-39
452.50613 -691.45282 20.995182 7.0529664e-39
759.41034 -684.44385 7.1240702 7.0529664e-39
770.43359 -707.84216 10.643067 7.0529664e-39
744.09009 -651.4201 9.0145473 7.0529664e-39
-1496.7576 -601.72882 28.158476 7.0529664e-39
714.591 -591.63831 8.1066408 7.0529664e-39
725.34497 -614.10162 7.7418871 7.0529664e-39
-1507.5599 -570.17346 13.935741 7.0529664e-39
-1478.8663 -571.31641 3.9617 7.0529664e-39
711.93433 -569.78174 8.5230036 7.0529664e-39
742.57416 -555.84253 7.7412815 7.0529664e-39
775.83929 -544.76221 8.2680759 7.0529664e-39
-174.66225 -514.80676 28.492172 7.0529664e-39
-111.70119 -512.13177 4.3112502 7.0529664e-39
797.77429 -534.45483 8.3758163 7.0529664e-39
831.19904 -519.0661 8.7955093 7.0529664e-39
857.39612 -502.14102 8.0052691 7.0529664e-39
-2528.781 -461.8374 44.870098 7.0529664e-39
-2512.238 -452.92908 29.674902 7.0529664e-39
-509.73627 -468.98242 15.448153 7.0529664e-39
-473.38907 -464.16876 14.894904 7.0529664e-39
-426.72766 -456.40436 14.814366 7.0529664e-39
-383.17743 -452.27859 14.110855 7.0529664e-39
-350.85962 -450.7226 22.451687 7.0529664e-39
-201.24469 -463.85944 16.046558 7.0529664e-39
-144.35547 -460.82382 7.4649181 7.0529664e-39
-125.44308 -476.42215 4.0786018 7.0529664e-39
761.04834 -471.86176 8.4161072 7.0529664e-39
843.17126 -479.76776 7.698091 7.0529664e-39
882.28308 -483.31732 6.6812582 7.0529664e-39
920.39502 -473.62857 11.711074 7.0529664e-39
-2524.1226 -416.55362 19.8337 7.0529664e-39
-2514.7466 -438.15063 20.243191 7.0529664e-39
-363.19269 -449.70319 7.5625501 7.0529664e-39
-335.56824 -447.83096 11.897116 7.0529664e-39
-291.92676 -445.22888 12.460691 7.0529664e-39
-248.12196 -445.06583 14.543791 7.0529664e-39
-205.41798 -441.38663 9.2903786 7.0529664e-39
-160.49568 -444.64932 4.0428843 7.0529664e-39
-1505.9077 -235.31641 11.3989 7.0529664e-39
-1483.4546 -233.76195 26.213499 7.0529664e-39
-1469.8582 -218.48779 11.501144 7.0529664e-39
-1424.2009 -202.50049 6.2916007 7.0529664e-39
-1379.236 -186.16652 16.230734 7.0529664e-39
424.14145 -195.38091 17.504622 6.9607708e-39
451.89401 -221.0873 44.013699 7.0529664e-39
-1364.4243 -176.4814 24.0145 7.0529664e-39
-1326.6482 -164.60625 10.765446 7.0529664e-39
-1281.9894 -144.98225 9.3995752 7.0529664e-39
429.80328 -167.86848 18.269651 7.0529664e-39
461.87436 -155.31226 19.772285 7.0529664e-39
519.55035 -150.44368 12.425583 7.0529664e-39
547.20776 -138.18398 13.88314 7.0529664e-39
-1236.6318 -123.96533 11.515499 7.0529664e-39
-1188.9828 -102.27434 9.684927 7.0529664e-39
-1159.2966 -91.239868 13.519801 7.0529664e-39
-111.2772 -125.5551 8.7924004 7.0529664e-39
566.99207 -113.17033 12.958096 7.0529664e-39
586.71179 -131.07294 31.506233 7.0529664e-39
-1146.6925 -80.435722 9.3486805 7.0529664e-39
-1092.3182 -61.916592 12.741082 7.0529664e-39
-1056.2201 -49.302212 8.223978 7.0529664e-39
528.12469 -59.581932 11.743709 7.0529664e-39
560.11218 -82.858376 15.924459 7.0529664e-39
-1053.6428 -38.79092 11.313193 7.0529664e-39
-1011.2555 -23.462999 5.2121062 7.0529664e-39
0.99010003 -0.00040000002 0.13914999 7.0529664e-39
103.9133 -27.882401 9.4127998 7.0529664e-39
398.06958 -5.4838567 6.261426 7.0529664e-39
430.91086 -13.923707 10.25945 7.0529664e-39
461.28391 -5.9183006 34.98307 7.0529664e-39
512.93109 -27.663937 19.132469 7.0529664e-39
-1.4425359 43.037437 0.33655369 7.0529664e-39
1.3581662 4.4458241 0.24911489 7.0529664e-39
56.341347 32.953503 4.8583055 7.0529664e-39
382.00531 32.144505 6.491756 7.0529664e-39
434.41846 19.194504 19.803381 7.0529664e-39
-2.6767893 47.124649 0.30404735 7.0529664e-39
42.454033 56.520176 2.9846108 7.0529664e-39
50.155094 52.531219 5.6413183 7.0529664e-39
401.40375 83.315208 5.2306237 7.0529664e-39
415.0549 64.678642 19.146826 7.0529664e-39
87.85836 127.65973 2.7051251 7.0529664e-39
90.300735 126.76937 2.7167668 7.0529664e-39
386.33328 114.25248 16.006868 7.0529664e-39
427.53952 120.84689 17.75773 7.0529664e-39
-31.355799 140.72812 2.2653198 7.0529664e-39
372.39844 136.08142 16.216644 7.0529664e-39
-49.120037 218.60062 35.488281 7.0529664e-39
-44.019604 217.82617 35.197754 7.0529664e-39
-992.11462 242.58377 17.827625 7.0529664e-39
-983.47113 243.20137 10.677401 7.0529664e-39
-91.492584 239.47598 7.0550241 7.0529664e-39
-76.189026 240.41077 14.68544 7.0526063e-39
-30.932789 245.96404 5.5712452 7.0529664e-39
-79.620514 313.54773 16.956833 7.0529664e-39
-95.953789 342.01779 2.6062253 7.0529664e-39
-76.969017 319.87894 14.322602 7.0529664e-39
216.03398 381.28558 38.341267 7.0529664e-39
234.47194 391.8483 39.952194 7.0529664e-39
352.26215 516.84387 32.781925 7.0529664e-39
-1506.8187 575.87836 18.098137 7.0529664e-39
380.13617 566.81995 35.767899 7.0529664e-39
-1730.9518 615.02386 32.064423 7.0529664e-39
-1709.4884 599.99451 31.6238 7.0529664e-39
-1497.1016 613.30896 16.920694 7.0529664e-39
-1471.5896 625.91046 18.601368 7.0529664e-39
-341.87027 613.73529 14.572888 7.0529664e-39
-164.48891 627.91541 4.0810757 7.0529664e-39
395.40076 591.51245 37.289398 7.0529664e-39
-1598.1887 651.54852 30.125753 7.0529664e-39
-1457.2098 644.39191 25.264744 7.0529664e-39
-1435.8495 652.10803 22.044142 7.0529664e-39
-154.06229 633.28503 7.5917935 7.0529664e-39
-1463.3945 702.74597 23.955441 7.0529664e-39
-1493.4429 749.60248 20.422812 7.0529664e-39
-1458.6172 747.20648 7.1467628 7.0529664e-39
-1503.266 786.98633 29.618317 7.0529664e-39
-1516.9243 829.70795 25.876944 7.0529664e-39
-1584.4163 878.6178 31.6238 7.0529664e-39
-1537.833 865.34558 18.002159 7.0529664e-39
-1501.2887 872.44592 16.905558 7.0529664e-39
-1502.3207 913.42334 30.690052 7.0529664e-39
-1788.8188 986.25696 35.655251 7.0529664e-39
-1656.9778 1033.1843 34.084499 7.0529664e-39
-1671.9722 1066.2629 34.613968 7.0529664e-39
-1653.5287 1063.9996 34.32254 7.0529664e-39
-1650.058 1095.2324 22.926634 7.0529664e-39
-1715.8549 1148.3738 36.039238 7.0529664e-39
-1689.1437 1150.6006 22.093401 7.0529664e-39
-1581.6467 1150.4471 20.415821 7.0529664e-39
-1573.7305 1149.2678 34.014702 7.0529664e-39
-1523.6526 1165.0574 33.479534 7.0529664e-39
-1692.9429 1187.8533 36.099072 7.0529664e-39
-1683.2812 1226.5696 36.355511 7.0529664e-39
-1645.2848 1247.1218 36.037277 7.0529664e-39
-1619.8334 1259.1907 35.812302 7.0529664e-39
-1603.4045 1274.015 35.747303 7.0529664e-39
-1611.1484 1327.0847 36.434788 7.0529664e-39
-1621.3218 1380.6083 37.170715 7.0529664e-39
-1619.4941 1364.4719 36.964203 7.0529664e-39
-1620.4283 1395.7577 37.3307 7.0529664e-39
-1595.6699 1408.8787 37.15617 7.0529664e-39
-1551.8611 1428.9683 36.82312 7.0529664e-39
-1509.4169 1435.6361 7.3300204 7.0529664e-39
-1507.6014 1450.7577 31.312109 7.0529664e-39
-1515.436 1506.4608 20.700489 7.0529664e-39
-1537.7234 1553.9368 19.072584 7.0529664e-39
-1528.0947 1533.4397 18.8748 7.0529664e-39
-1557.2852 1596.2028 19.462919 7.0529664e-39
-1582.2118 1651.4358 15.989901 7.0529664e-39
-1572.3867 1629.9639 26.353134 7.0529664e-39
-320.50116 1656.0125 29.4422 7.0529664e-39
-313.47974 1654.304 29.389851 7.0529664e-39
-1597.2726 1686.8209 20.292801 7.0529664e-39
-685.13904 1698.7494 31.97282 7.0529664e-39
-671.82739 1702.6338 31.949535 7.0529664e-39
-326.83115 1678.864 29.855232 7.0529664e-39
-1622.1853 1745.3765 20.759649 7.0529664e-39
-1614.3827 1725.9896 20.599667 7.0529664e-39
-1637.8368 1778.908 21.137037 7.0529664e-39
-1668.0629 1844.1396 43.404099 7.0529664e-39
-1657.8767 1823.7084 21.489731 7.0529664e-39
-780.21204 1835.0262 24.076262 7.0529664e-39
-380.63977 1834.6318 32.705837 7.0529664e-39
-1678.1252 1869.7764 18.83363 7.0529664e-39
-771.92798 1846.025 8.7174749 7.0529664e-39
-760.77887 1847.1603 34.8699 7.0529664e-39
-1695.793 1911.0599 22.318718 7.0529664e-39
-947.02478 2113.1414 40.4198 7.0529664e-39
-943.66571 2113.5486 40.402302 7.0529664e-39
-932.9007 2131.9211 18.415464 7.0529664e-39
891.85193 -4415.1382 78.6231 7.0529664e-39
902.15228 -4426.311 78.849998 7.0529664e-39
577.27679 -4378.9385 77.096001 7.0529664e-39
596.63593 -4369.7769 76.982582 7.0529664e-39
685.771 -4375.9121 77.314163 7.0529664e-39
761.87372 -4365.3398 77.349098 7.0529664e-39
796.61786 -4367.5996 77.494499 7.0529664e-39
828.49219 -4375.3569 77.729546 7.0529664e-39
870.77698 -4397.6787 78.25222 7.0529664e-39
615.9364 -4360.542 76.869095 7.0529664e-39
649.84534 -4349.0317 76.755692 7.0529664e-39
743.27405 -4363.2134 77.257446 7.0529664e-39
778.36633 -4360.9038 77.322899 7.0529664e-39
-229.22099 -3379.7197 59.128799 7.0529664e-39
-221.6165 -3381.2275 59.146248 7.0529664e-39
-263.52094 -3300.4912 57.793652 7.0529664e-39
503.24579 -3069.7949 54.298775 7.0529664e-39
292.34781 -2656.5552 46.650299 7.0529664e-39
305.91183 -2643.9521 46.458298 7.0529664e-39
328.00516 -2643.3083 46.493202 7.0529664e-39
1174.527 -2454.3582 47.493801 7.0529664e-39
-2295.6963 -1935.2109 52.409599 7.0529664e-39
-2305.6711 -1910.2279 52.264149 7.0529664e-39
-2327.8394 -1871.1504 52.1325 7.0529664e-39
-2332.2476 -1840.5806 51.859798 7.0529664e-39
-190.26213 -1492.2513 78.838921 7.0529664e-39
-2184.9612 -1449.0511 45.763699 7.0529664e-39
-2483.1499 -1430.1823 50.0186 7.0529664e-39
-2208.9297 -1403.8153 45.684601 7.0529664e-39
-2198.5642 -1423.486 45.717831 7.0529664e-39
-2550.574 -1351.5811 50.385067 7.0529664e-39
-2217.1863 -1379.0767 45.576935 7.0529664e-39
-2579.3132 -1329.1169 50.648613 7.0529664e-39
1068.166 -1317.3657 88.883904 7.0529664e-39
-2598.812 -1285.111 50.606167 7.0529664e-39
-2393.0378 -1282.5984 47.391998 7.0529664e-39
667.48132 -1269.2185 75.154449 7.0529664e-39
1050.9905 -1278.7434 86.746849 7.0529664e-39
-2623.7996 -1226.6511 50.556702 7.0529664e-39
-2606.7966 -1249.4241 50.458424 7.0529664e-39
669.50189 -1254.3928 74.517685 7.0529664e-39
688.15454 -1241.4758 74.391197 7.0529664e-39
-2641.6804 -1190.4379 50.577068 7.0529664e-39
-2663.1599 -1144.4618 50.596699 7.0529664e-39
-2654.6101 -1166.3977 50.612 7.0529664e-39
959.64813 -1139.3374 78.069542 7.0529664e-39
-2658.2671 -1113.067 50.303631 7.0529664e-39
-2644.2266 -1092.5813 49.940048 7.0529664e-39
954.664 -1104.6249 76.515182 7.0529664e-39
-2704.2917 -1055.7202 50.67305 7.0529664e-39
931.41357 -1055.5432 73.776268 7.0529664e-39
-2720.0354 -1002.9393 50.603268 7.0529664e-39
910.87915 -1011.414 71.333923 7.0529664e-39
-2751.9614 -951.47168 50.825798 7.0529664e-39
-2729.8005 -971.55212 50.577084 7.0529664e-39
891.12079 -967.82471 68.947357 7.0529664e-39
900.96393 -988.0658 70.077797 7.0529664e-39
-2764.9883 -919.4837 50.862137 7.0529664e-39
870.4884 -923.36969 66.50592 7.0529664e-39
-2792.1536 -863.2489 51.013351 7.0529664e-39
-2783.7993 -881.77008 50.97102 7.0529664e-39
845.57056 -871.7854 63.649254 7.0529664e-39
858.43658 -897.98877 65.105904 7.0529664e-39
-2804.918 -832.38495 51.070969 7.0529664e-39
827.49963 -831.58691 61.483112 7.0529664e-39
-2824.7449 -787.7323 51.187912 7.0529664e-39
804.2619 -778.68652 58.668617 7.0529664e-39
813.57385 -801.55261 59.8549 7.0529664e-39
-2843.2024 -755.02423 51.348457 7.0529664e-39
-2810.0161 -727.07397 50.664333 7.0529664e-39
425.6369 -742.02271 64.774734 7.0529664e-39
786.34387 -742.02008 56.662403 7.0529664e-39
-2872.603 -682.40344 51.536934 7.0529664e-39
-2815.5581 -698.00555 50.633789 7.0529664e-39
431.04898 -703.49817 72.191116 7.0529664e-39
454.05783 -692.91516 72.478699 7.0529664e-39
760.47656 -683.97784 69.535767 7.0529664e-39
771.29004 -708.86243 54.900417 7.0529664e-39
-2881.2959 -630.85858 51.4846 7.0529664e-39
-2868.8267 -653.32886 51.358074 7.0529664e-39
745.97437 -652.19824 70.08049 7.0529664e-39
-2889.8359 -607.32458 51.544708 7.0529664e-39
-1506.4719 -591.75134 84.823502 7.0529664e-39
715.98212 -591.16412 60.86161 7.0529664e-39
726.98462 -613.44208 67.483788 7.0529664e-39
-2929.6282 -548.52869 52.02565 7.0529664e-39
-2913.6089 -572.75146 51.830734 7.0529664e-39
-1500.2668 -563.09259 83.983116 7.0529664e-39
-277.58246 -550.0451 75.650406 7.0529664e-39
711.82971 -570.01056 62.565197 7.0529664e-39
741.74591 -555.9577 65.195869 7.0529664e-39
776.41095 -544.84747 67.031662 7.0529664e-39
-277.85611 -539.60571 74.523102 7.0529664e-39
790.81647 -517.27875 66.123535 7.0529664e-39
881.93646 -496.08026 88.52845 7.0529664e-39
-463.19452 -478.69034 58.278137 7.0529664e-39
-421.01331 -479.15836 72.275192 7.0529664e-39
-345.60849 -469.1001 63.026382 7.0529664e-39
-285.3801 -469.63263 67.477524 7.0529664e-39
-253.91219 -459.66083 45.944836 7.0529664e-39
762.42517 -469.52164 60.395821 7.0529664e-39
789.39502 -483.77454 64.6763 7.0529664e-39
826.32166 -483.42175 65.972328 7.0529664e-39
889.58539 -491.3587 67.563477 7.0529664e-39
918.32373 -479.62234 60.058842 7.0529664e-39
945.47382 -467.077 55.2668 7.0529664e-39
-270.60629 -440.55319 45.233799 7.0529664e-39
-261.12415 -445.83322 45.204784 7.0529664e-39
425.88705 -196.89441 68.088638 7.0529664e-39
453.0296 -221.349 61.909599 7.0529664e-39
428.10681 -167.32671 63.705158 7.0529664e-39
463.10455 -154.37335 69.05526 7.0529664e-39
520.44989 -150.30351 66.807457 7.0529664e-39
546.67297 -138.8632 65.590919 7.0529664e-39
568.30896 -112.66856 61.136395 7.0529664e-39
587.49677 -131.40709 61.147366 7.0529664e-39
-3152.1216 -50.067799 55.027401 7.0529664e-39
-3147.9443 -60.1688 54.9576 7.0529664e-39
532.62231 -56.060341 62.226315 7.0529664e-39
559.98645 -74.678383 66.944016 7.0529664e-39
-3158.321 -34.727303 55.132133 7.0529664e-39
-3139.8857 -13.160001 54.807537 7.0529664e-39
494.46844 -0.80533332 66.585175 7.0529664e-39
513.22052 -24.690094 66.245743 7.0526063e-39
-3172.1499 31.817122 55.372982 7.0529664e-39
-3143.8364 8.6015339 54.876202 7.0529664e-39
448.55377 34.201118 61.16642 7.0529664e-39
476.21213 18.712368 67.505547 7.0529664e-39
-3185.564 61.792751 55.614986 7.0529664e-39
-2738.6367 78.98848 47.823078 7.0529664e-39
441.81406 71.61692 62.139133 7.0529664e-39
454.82275 52.342728 68.637398 7.0529664e-39
-2751.0659 109.53564 48.058102 7.0529664e-39
-2742.3733 96.728149 47.898148 7.0529664e-39
378.29312 125.92839 55.837746 7.0529664e-39
424.88745 108.71665 61.610977 7.0529664e-39
-3248.1331 156.69102 56.762703 7.0529664e-39
372.2677 136.61832 59.291019 7.0529664e-39
-3266.6765 197.28236 57.124214 7.0529664e-39
-2794.5476 207.89632 48.914104 7.0529664e-39
-2789.7617 195.0791 48.8144 7.0529664e-39
-2805.3867 227.1945 49.128502 7.0529664e-39
-993.83752 238.26706 79.188408 7.0529664e-39
-988.82953 251.97643 74.966911 7.0529664e-39
-3311.1401 294.28003 58.024277 7.0529664e-39
-2847.2837 309.565 49.992401 7.0529664e-39
-3313.1389 335.08575 58.126476 7.0529664e-39
-2855.4927 334.09763 50.183144 7.0529664e-39
-100.3849 358.57181 58.9758 7.0529664e-39
-100.6159 361.58359 59.445099 7.0529664e-39
213.42232 381.99045 69.307915 7.0529664e-39
235.22166 391.30542 72.314468 7.0529664e-39
-3379.4382 440.11597 59.486549 7.0529664e-39
-3370.0674 422.7547 59.285835 7.0529664e-39
-2939.2607 423.02856 51.833649 7.0529664e-39
-2892.0891 437.19058 51.05526 7.0529664e-39
-3390.7339 466.1958 59.742504 7.0529664e-39
-2931.1567 482.10617 51.851097 7.0529664e-39
-2914.8982 459.42548 51.5079 7.0529664e-39
-2917.2612 517.901 51.7173 7.0529664e-39
350.25357 528.05853 58.619896 7.0529664e-39
369.53607 529.77069 56.513252 7.0529664e-39
-3445.6331 582.16663 60.996201 7.0529664e-39
-3018.5718 581.28424 53.657402 7.0529664e-39
-2840.7495 570.05511 50.57415 7.0529664e-39
383.56314 554.98419 67.166405 7.0529664e-39
-2994.877 625.66455 53.40435 7.0529664e-39
-2843.6404 586.81952 50.681801 7.0529664e-39
-340.80188 614.35931 73.840675 7.0529664e-39
-158.62814 628.16412 79.550224 7.0529664e-39
379.98499 595.91693 67.220284 7.0529664e-39
-3472.8828 645.97748 61.65937 7.0529664e-39
-3018.0854 665.22729 53.9454 7.0529664e-39
-3000.6846 646.4458 53.578876 7.0529664e-39
-1453.4484 653.21631 83.513229 7.0529664e-39
-150.89549 633.54144 79.966599 7.0529664e-39
-3034.2881 681.40155 54.282768 7.0529664e-39
-1459.8088 680.87701 84.4179 7.0529664e-39
-3066.9968 788.61658 55.276123 7.0529664e-39
-1517.306 787.84119 89.599205 7.0529664e-39
-3562.8318 835.27582 63.87582 7.0529664e-39
-3553.1538 815.0863 63.6315 7.0529664e-39
-182.37949 840.93524 45.096169 7.0529664e-39
-178.12672 843.46191 45.179028 7.0529664e-39
-3572.3916 855.67731 64.120102 7.0529664e-39
-3120.5586 891.86023 56.650551 7.0529664e-39
-3130.7595 921.21649 56.964661 7.0529664e-39
-3623.106 968.22968 65.461075 7.0529664e-39
-3132.3977 949.00818 57.130447 7.0529664e-39
-3637.5989 1004.1993 65.869728 7.0529664e-39
-3176.4517 1019.8486 58.232864 7.0529664e-39
-375.48724 1031.7097 57.539677 7.0529664e-39
667.99554 1004.4976 63.221848 7.0529664e-39
-409.34583 1067.9124 59.937748 7.0529664e-39
-398.24411 1064.1085 59.545197 7.0529664e-39
-3704.2625 1145.7018 67.680443 7.0529664e-39
-3723.4597 1189.0706 68.227264 7.0529664e-39
-465.4953 1200.1184 67.460999 7.0529664e-39
-3747.4158 1239.8065 68.898621 7.0529664e-39
-3768.9119 1282.6261 69.491982 7.0529664e-39
-3787.3984 1315.5913 69.984146 7.0529664e-39
-3811.2778 1377.9121 70.74044 7.0529664e-39
-3832.3652 1420.1682 71.339638 7.0529664e-39
-3820.3096 1401.8163 71.031303 7.0529664e-39
-1721.3479 1964.917 45.597301 7.0529664e-39
-1709.2308 1938.7418 45.114498 7.0529664e-39
-1742.4984 2011.2483 46.449551 7.0529664e-39
-1761.7969 2053.3562 47.2262 7.0529664e-39
-1753.1028 2033.1404 46.859699 7.0529664e-39
-1778.1835 2088.8911 47.883568 7.0529664e-39
-1805.9055 2148.384 48.988899 7.0529664e-39
-1792.6274 2119.0366 48.447899 7.0529664e-39
-1818.3201 2177.5464 49.518265 7.0529664e-39
-1848.7979 2242.771 50.7341 7.0529664e-39
-1837.0447 2217.4614 50.262947 7.0529664e-39
-1859.554 2266.2874 51.170448 7.0529664e-39
-1892.741 2339.8445 52.5317 7.0529664e-39
-1882.2732 2316.1504 52.095451 7.0529664e-39
-1905.6116 2368 53.055298 7.0529664e-39
-1923.2422 2405.769 53.76215 7.0529664e-39
-1940.3538 2441.9944 54.442749 7.0529664e-39
-1966.106 2499.3843 55.507351 7.0529664e-39
-1988.1812 2547.5042 56.4062 7.0529664e-39
-1978.7949 2528.1914 56.0397 7.0529664e-39
-2006.6016 2588.4858 57.168266 7.0529664e-39
-2036.9229 2652.6519 58.3783 7.0529664e-39
-2024.1533 2628.4167 57.907101 7.0529664e-39
-1184.4769 2625.7646 50.280399 7.0529664e-39
-2062.6641 2709.1157 59.434151 7.0529664e-39
-2085.2644 2757.2319 60.341698 7.0529664e-39
-2104.4668 2800.3545 61.14455 7.0529664e-39
-2126.4634 2848.2139 62.043301 7.0529664e-39
-2138.929 2880.0703 62.619202 7.0529664e-39
-2170.2495 2945.8228 63.8671 7.0529664e-39
-2186.9214 2982.5842 64.556503 7.0529664e-39
-2217.5708 3044.396 65.743202 7.0529664e-39
-2203.5354 3016.2688 65.202202 7.0529664e-39
-2236.5161 3086.2446 66.528595 7.0529664e-39
-2257.0078 3129.4187 67.348801 7.0529664e-39
-2267.2959 3155.2759 67.820099 7.0529664e-39
-2298.0349 3219.3484 69.041702 7.0529664e-39
-2324.3452 3277.9355 70.141197 7.0529664e-39
-2344.0066 3316.6929 70.891701 7.0529664e-39
-2357.8027 3346.1167 71.450203 7.0529664e-39
-2385.6931 3408.3889 72.619499 7.0529664e-39
-2373.7898 3381.323 72.113297 7.0529664e-39
-2400.9304 3441.6533 73.247704 7.0529664e-39
-2451.1121 3550.437 75.307098 7.0529664e-39
1156.3889 -1506.8013 99.542999 7.0529664e-39
1135.3511 -1462.8032 97.043922 7.0529664e-39
1114.8018 -1417.7129 94.51873 7.0529664e-39
1092.1206 -1368.585 91.762375 7.0529664e-39
1077.6827 -1337.4965 90.017799 7.0529664e-39
1082.2239 -1347.941 90.593498 7.0529664e-39
803.677 -775.72369 97.723373 7.0529664e-39
814.07892 -798.38983 99.758461 7.0529664e-39
553.39801 -136.13141 90.262695 7.0529664e-39
568.67285 -113.00595 91.856979 7.0529664e-39
589.03558 -131.2334 95.581497 7.0529664e-39
577.97693 -82.603462 92.481209 7.0529664e-39
591.02966 -57.258724 94.048401 7.0529664e-39
338.27203 509.2699 96.832932 7.0529664e-39
-685.55316 1699.7686 96.05394 7.0529664e-39
-668.66052 1704.2542 95.944878 7.0529664e-39
-368.63437 1838.3942 98.264519 7.0529664e-39
-345.5961 1838.7955 98.055153 7.0529664e-39
-332.78369 1847.6936 98.391602 7.0529664e-39
-2257.437 4760.582 91.965454 7.0529664e-39
-2241.2026 4766.0361 91.93055 7.0529664e-39
-2231.7163 4785.9355 92.174896 7.0529664e-39
