# .PCD v0.7 - Point Cloud Data file format
VERSION 0.7
FIELDS x y z rgb
SIZE 4 4 4 4
TYPE F F F F
COUNT 1 1 1 1
WIDTH 1078
HEIGHT 1
VIEWPOINT 0 0 0 1 0 0 0
POINTS 1078
DATA ascii
-1781.4456 2097.1665 0 7.0529664e-39
-947.02478 2113.1414 40.4198 7.0529664e-39
-943.66571 2113.5486 40.402302 7.0529664e-39
-1805.2913 2148.8044 0 7.0529664e-39
-1793.9054 2125.0564 0 7.0529664e-39
-948.89001 2130.5813 0 7.0529664e-39
-932.9007 2131.9211 18.415464 7.0529664e-39
-1816.925 2176.8872 0 7.0529664e-39
-1850.9336 2249.3584 0 7.0529664e-39
-1838.824 2224.3467 0 7.0529664e-39
-1862.532 2274.7681 0 7.0529664e-39
-1881.458 2316.5376 0 7.0529664e-39
-1894.5645 2347.9597 0 7.0529664e-39
-1923.348 2406.4961 0 7.0529664e-39
-1944.3032 2452.2336 0 7.0529664e-39
-1964.9677 2498.5613 0 7.0529664e-39
-1982.4301 2537.3945 0 7.0529664e-39
-2005.4414 2587.2769 0 7.0529664e-39
-2030.0897 2640.8894 0 7.0529664e-39
-2019.5787 2618.6926 0 7.0529664e-39
-2044.5842 2673.249 0 7.0529664e-39
-2070.8804 2729.2729 0 7.0529664e-39
-2061.7061 2707.3562 0 7.0529664e-39
-2084.6868 2756.4502 0 7.0529664e-39
-2108.0962 2810.8013 0 7.0529664e-39
-2130.324 2859.1084 0 7.0529664e-39
-2152.3137 2908.1714 0 7.0529664e-39
-2167.9983 2943.8274 0 7.0529664e-39
-2188.4951 2985.8472 0 7.0529664e-39
-2215.3069 3047.9895 0 7.0529664e-39
-2236.8027 3092.3096 0 7.0529664e-39
-2255.8252 3134.6924 0 7.0529664e-39
-2268.3833 3162.6099 0 7.0529664e-39
-2297.8955 3225.1011 0 7.0529664e-39
-2309.6287 3253.5696 0 7.0529664e-39
-2366.0344 3376.5381 0 7.0529664e-39
-2584.7847 4989.7544 0 7.0529664e-39
-2562.2048 4994.084 0 7.0529664e-39
-2659.7717 5025.5557 0 7.0529664e-39
-2642.4509 5032.4204 0 7.0529664e-39
-2575.4976 4998.4941 0 7.0529664e-39
-2536.6709 5001.4917 0 7.0529664e-39
-2500.2798 5017.3447 0 7.0529664e-39
-2465.8604 5037.8975 0 7.0529664e-39
-2451.7632 5049.2153 0 7.0529664e-39
-4971.585 10794.109 0 7.0529664e-39
-4955.457 10803.724 0 7.0529664e-39
-4938.896 10812.403 0 7.0529664e-39
891.85193 -4415.1382 78.6231 7.0529664e-39
902.15228 -4426.311 78.849998 7.0529664e-39
577.27679 -4378.9385 77.096001 7.0529664e-39
596.63593 -4369.7769 76.982582 7.0529664e-39
685.771 -4375.9121 77.314163 7.0529664e-39
761.87372 -4365.3398 77.349098 7.0529664e-39
796.61786 -4367.5996 77.494499 7.0529664e-39
828.49219 -4375.3569 77.729546 7.0529664e-39
870.77698 -4397.6787 78.25222 7.0529664e-39
615.9364 -4360.542 76.869095 7.0529664e-39
649.84534 -4349.0317 76.755692 7.0529664e-39
743.27405 -4363.2134 77.257446 7.0529664e-39
778.36633 -4360.9038 77.322899 7.0529664e-39
-229.22099 -3379.7197 59.128799 7.0529664e-39
-221.6165 -3381.2275 59.146248 7.0529664e-39
-263.52094 -3300.4912 57.793652 7.0529664e-39
503.24579 -3069.7949 54.298775 7.0529664e-39
292.34781 -2656.5552 46.650299 7.0529664e-39
305.91183 -2643.9521 46.458298 7.0529664e-39
328.00516 -2643.3083 46.493202 7.0529664e-39
1174.527 -2454.3582 47.493801 7.0529664e-39
-2295.6963 -1935.2109 52.409599 7.0529664e-39
-2305.6711 -1910.2279 52.264149 7.0529664e-39
-2327.8394 -1871.1504 52.1325 7.0529664e-39
-2332.2476 -1840.5806 51.859798 7.0529664e-39
-190.26213 -1492.2513 78.838921 7.0529664e-39
-2184.9612 -1449.0511 45.763699 7.0529664e-39
-2483.1499 -1430.1823 50.0186 7.0529664e-39
-2208.9297 -1403.8153 45.684601 7.0529664e-39
-2198.5642 -1423.486 45.717831 7.0529664e-39
-2550.574 -1351.5811 50.385067 7.0529664e-39
-2217.1863 -1379.0767 45.576935 7.0529664e-39
-2579.3132 -1329.1169 50.648613 7.0529664e-39
1068.166 -1317.3657 88.883904 7.0529664e-39
-2598.812 -1285.111 50.606167 7.0529664e-39
-2393.0378 -1282.5984 47.391998 7.0529664e-39
667.48132 -1269.2185 75.154449 7.0529664e-39
1050.9905 -1278.7434 86.746849 7.0529664e-39
-2623.7996 -1226.6511 50.556702 7.0529664e-39
-2606.7966 -1249.4241 50.458424 7.0529664e-39
669.50189 -1254.3928 74.517685 7.0529664e-39
688.15454 -1241.4758 74.391197 7.0529664e-39
-2641.6804 -1190.4379 50.577068 7.0529664e-39
-2663.1599 -1144.4618 50.596699 7.0529664e-39
-2654.6101 -1166.3977 50.612 7.0529664e-39
959.64813 -1139.3374 78.069542 7.0529664e-39
-2658.2671 -1113.067 50.303631 7.0529664e-39
-2644.2266 -1092.5813 49.940048 7.0529664e-39
954.664 -1104.6249 76.515182 7.0529664e-39
-2704.2917 -1055.7202 50.67305 7.0529664e-39
931.41357 -1055.5432 73.776268 7.0529664e-39
-2720.0354 -1002.9393 50.603268 7.0529664e-39
910.87915 -1011.414 71.333923 7.0529664e-39
-2751.9614 -951.47168 50.825798 7.0529664e-39
-2729.8005 -971.55212 50.577084 7.0529664e-39
891.12079 -967.82471 68.947357 7.0529664e-39
900.96393 -988.0658 70.077797 7.0529664e-39
-2764.9883 -919.4837 50.862137 7.0529664e-39
870.4884 -923.36969 66.50592 7.0529664e-39
-2792.1536 -863.2489 51.013351 7.0529664e-39
-2783.7993 -881.77008 50.97102 7.0529664e-39
845.57056 -871.7854 63.649254 7.0529664e-39
858.43658 -897.98877 65.105904 7.0529664e-39
-2804.918 -832.38495 51.070969 7.0529664e-39
827.49963 -831.58691 61.483112 7.0529664e-39
-2824.7449 -787.7323 51.187912 7.0529664e-39
804.2619 -778.68652 58.668617 7.0529664e-39
813.57385 -801.55261 59.8549 7.0529664e-39
-2843.2024 -755.02423 51.348457 7.0529664e-39
-2810.0161 -727.07397 50.664333 7.0529664e-39
425.6369 -742.02271 64.774734 7.0529664e-39
786.34387 -742.02008 56.662403 7.0529664e-39
-2872.603 -682.40344 51.536934 7.0529664e-39
-2815.5581 -698.00555 50.633789 7.0529664e-39
431.04898 -703.49817 72.191116 7.0529664e-39
454.05783 -692.91516 72.478699 7.0529664e-39
760.47656 -683.97784 69.535767 7.0529664e-39
771.29004 -708.86243 54.900417 7.0529664e-39
-2881.2959 -630.85858 51.4846 7.0529664e-39
-2868.8267 -653.32886 51.358074 7.0529664e-39
745.97437 -652.19824 70.08049 7.0529664e-39
-2889.8359 -607.32458 51.544708 7.0529664e-39
-1506.4719 -591.75134 84.823502 7.0529664e-39
715.98212 -591.16412 60.86161 7.0529664e-39
726.98462 -613.44208 67.483788 7.0529664e-39
-2929.6282 -548.52869 52.02565 7.0529664e-39
-2913.6089 -572.75146 51.830734 7.0529664e-39
-1500.2668 -563.09259 83.983116 7.0529664e-39
-277.58246 -550.0451 75.650406 7.0529664e-39
711.82971 -570.01056 62.565197 7.0529664e-39
741.74591 -555.9577 65.195869 7.0529664e-39
776.41095 -544.84747 67.031662 7.0529664e-39
-277.85611 -539.60571 74.523102 7.0529664e-39
790.81647 -517.27875 66.123535 7.0529664e-39
881.93646 -496.08026 88.52845 7.0529664e-39
-463.19452 -478.69034 58.278137 7.0529664e-39
-421.01331 -479.15836 72.275192 7.0529664e-39
-345.60849 -469.1001 63.026382 7.0529664e-39
-285.3801 -469.63263 67.477524 7.0529664e-39
-253.91219 -459.66083 45.944836 7.0529664e-39
762.42517 -469.52164 60.395821 7.0529664e-39
789.39502 -483.77454 64.6763 7.0529664e-39
826.32166 -483.42175 65.972328 7.0529664e-39
889.58539 -491.3587 67.563477 7.0529664e-39
918.32373 -479.62234 60.058842 7.0529664e-39
945.47382 -467.077 55.2668 7.0529664e-39
-270.60629 -440.55319 45.233799 7.0529664e-39
-261.12415 -445.83322 45.204784 7.0529664e-39
425.88705 -196.89441 68.088638 7.0529664e-39
453.0296 -221.349 61.909599 7.0529664e-39
428.10681 -167.32671 63.705158 7.0529664e-39
463.10455 -154.37335 69.05526 7.0529664e-39
520.44989 -150.30351 66.807457 7.0529664e-39
546.67297 -138.8632 65.590919 7.0529664e-39
568.30896 -112.66856 61.136395 7.0529664e-39
587.49677 -131.40709 61.147366 7.0529664e-39
-3152.1216 -50.067799 55.027401 7.0529664e-39
-3147.9443 -60.1688 54.9576 7.0529664e-39
532.62231 -56.060341 62.226315 7.0529664e-39
559.98645 -74.678383 66.944016 7.0529664e-39
-3158.321 -34.727303 55.132133 7.0529664e-39
-3139.8857 -13.160001 54.807537 7.0529664e-39
494.46844 -0.80533332 66.585175 7.0529664e-39
513.22052 -24.690094 66.245743 7.0526063e-39
-3172.1499 31.817122 55.372982 7.0529664e-39
-3143.8364 8.6015339 54.876202 7.0529664e-39
448.55377 34.201118 61.16642 7.0529664e-39
476.21213 18.712368 67.505547 7.0529664e-39
-3185.564 61.792751 55.614986 7.0529664e-39
-2738.6367 78.98848 47.823078 7.0529664e-39
441.81406 71.61692 62.139133 7.0529664e-39
454.82275 52.342728 68.637398 7.0529664e-39
-2751.0659 109.53564 48.058102 7.0529664e-39
-2742.3733 96.728149 47.898148 7.0529664e-39
378.29312 125.92839 55.837746 7.0529664e-39
424.88745 108.71665 61.610977 7.0529664e-39
-3248.1331 156.69102 56.762703 7.0529664e-39
372.2677 136.61832 59.291019 7.0529664e-39
-3266.6765 197.28236 57.124214 7.0529664e-39
-2794.5476 207.89632 48.914104 7.0529664e-39
-2789.7617 195.0791 48.8144 7.0529664e-39
-2805.3867 227.1945 49.128502 7.0529664e-39
-993.83752 238.26706 79.188408 7.0529664e-39
-988.82953 251.97643 74.966911 7.0529664e-39
-3311.1401 294.28003 58.024277 7.0529664e-39
-2847.2837 309.565 49.992401 7.0529664e-39
-3313.1389 335.08575 58.126476 7.0529664e-39
-2855.4927 334.09763 50.183144 7.0529664e-39
-100.3849 358.57181 58.9758 7.0529664e-39
-100.6159 361.58359 59.445099 7.0529664e-39
213.42232 381.99045 69.307915 7.0529664e-39
235.22166 391.30542 72.314468 7.0529664e-39
-3379.4382 440.11597 59.486549 7.0529664e-39
-3370.0674 422.7547 59.285835 7.0529664e-39
-2939.2607 423.02856 51.833649 7.0529664e-39
-2892.0891 437.19058 51.05526 7.0529664e-39
-3390.7339 466.1958 59.742504 7.0529664e-39
-2931.1567 482.10617 51.851097 7.0529664e-39
-2914.8982 459.42548 51.5079 7.0529664e-39
-2917.2612 517.901 51.7173 7.0529664e-39
350.25357 528.05853 58.619896 7.0529664e-39
369.53607 529.77069 56.513252 7.0529664e-39
-3445.6331 582.16663 60.996201 7.0529664e-39
-3018.5718 581.28424 53.657402 7.0529664e-39
-2840.7495 570.05511 50.57415 7.0529664e-39
383.56314 554.98419 67.166405 7.0529664e-39
-2994.877 625.66455 53.40435 7.0529664e-39
-2843.6404 586.81952 50.681801 7.0529664e-39
-340.80188 614.35931 73.840675 7.0529664e-39
-158.62814 628.16412 79.550224 7.0529664e-39
379.98499 595.91693 67.220284 7.0529664e-39
-3472.8828 645.97748 61.65937 7.0529664e-39
-3018.0854 665.22729 53.9454 7.0529664e-39
-3000.6846 646.4458 53.578876 7.0529664e-39
-1453.4484 653.21631 83.513229 7.0529664e-39
-150.89549 633.54144 79.966599 7.0529664e-39
-3034.2881 681.40155 54.282768 7.0529664e-39
-1459.8088 680.87701 84.4179 7.0529664e-39
-3066.9968 788.61658 55.276123 7.0529664e-39
-1517.306 787.84119 89.599205 7.0529664e-39
-3562.8318 835.27582 63.87582 7.0529664e-39
-3553.1538 815.0863 63.6315 7.0529664e-39
-182.37949 840.93524 45.096169 7.0529664e-39
-178.12672 843.46191 45.179028 7.0529664e-39
-3572.3916 855.67731 64.120102 7.0529664e-39
-3120.5586 891.86023 56.650551 7.0529664e-39
-3130.7595 921.21649 56.964661 7.0529664e-39
-3623.106 968.22968 65.461075 7.0529664e-39
-3132.3977 949.00818 57.130447 7.0529664e-39
-3637.5989 1004.1993 65.869728 7.0529664e-39
-3176.4517 1019.8486 58.232864 7.0529664e-39
-375.48724 1031.7097 57.539677 7.0529664e-39
667.99554 1004.4976 63.221848 7.0529664e-39
-409.34583 1067.9124 59.937748 7.0529664e-39
-398.24411 1064.1085 59.545197 7.0529664e-39
-3704.2625 1145.7018 67.680443 7.0529664e-39
-3723.4597 1189.0706 68.227264 7.0529664e-39
-465.4953 1200.1184 67.460999 7.0529664e-39
-3747.4158 1239.8065 68.898621 7.0529664e-39
-3768.9119 1282.6261 69.491982 7.0529664e-39
-3787.3984 1315.5913 69.984146 7.0529664e-39
-3811.2778 1377.9121 70.74044 7.0529664e-39
-3832.3652 1420.1682 71.339638 7.0529664e-39
-3820.3096 1401.8163 71.031303 7.0529664e-39
-1721.3479 1964.917 45.597301 7.0529664e-39
-1709.2308 1938.7418 45.114498 7.0529664e-39
-1742.4984 2011.2483 46.449551 7.0529664e-39
-1761.7969 2053.3562 47.2262 7.0529664e-39
-1753.1028 2033.1404 46.859699 7.0529664e-39
-1778.1835 2088.8911 47.883568 7.0529664e-39
-1805.9055 2148.384 48.988899 7.0529664e-39
-1792.6274 2119.0366 48.447899 7.0529664e-39
-1818.3201 2177.5464 49.518265 7.0529664e-39
-1848.7979 2242.771 50.7341 7.0529664e-39
-1837.0447 2217.4614 50.262947 7.0529664e-39
-1859.554 2266.2874 51.170448 7.0529664e-39
-1892.741 2339.8445 52.5317 7.0529664e-39
-1882.2732 2316.1504 52.095451 7.0529664e-39
-1905.6116 2368 53.055298 7.0529664e-39
-1923.2422 2405.769 53.76215 7.0529664e-39
-1940.3538 2441.9944 54.442749 7.0529664e-39
-1966.106 2499.3843 55.507351 7.0529664e-39
-1988.1812 2547.5042 56.4062 7.0529664e-39
-1978.7949 2528.1914 56.0397 7.0529664e-39
-2006.6016 2588.4858 57.168266 7.0529664e-39
-2036.9229 2652.6519 58.3783 7.0529664e-39
-2024.1533 2628.4167 57.907101 7.0529664e-39
-1184.4769 2625.7646 50.280399 7.0529664e-39
-2062.6641 2709.1157 59.434151 7.0529664e-39
-2085.2644 2757.2319 60.341698 7.0529664e-39
-2104.4668 2800.3545 61.14455 7.0529664e-39
-2126.4634 2848.2139 62.043301 7.0529664e-39
-2138.929 2880.0703 62.619202 7.0529664e-39
-2170.2495 2945.8228 63.8671 7.0529664e-39
-2186.9214 2982.5842 64.556503 7.0529664e-39
-2217.5708 3044.396 65.743202 7.0529664e-39
-2203.5354 3016.2688 65.202202 7.0529664e-39
-2236.5161 3086.2446 66.528595 7.0529664e-39
-2257.0078 3129.4187 67.348801 7.0529664e-39
-2267.2959 3155.2759 67.820099 7.0529664e-39
-2298.0349 3219.3484 69.041702 7.0529664e-39
-2324.3452 3277.9355 70.141197 7.0529664e-39
-2344.0066 3316.6929 70.891701 7.0529664e-39
-2357.8027 3346.1167 71.450203 7.0529664e-39
-2385.6931 3408.3889 72.619499 7.0529664e-39
-2373.7898 3381.323 72.113297 7.0529664e-39
-2400.9304 3441.6533 73.247704 7.0529664e-39
-2451.1121 3550.437 75.307098 7.0529664e-39
305.71582 -7371.0371 128.7726 7.0529664e-39
334.4848 -7365.9482 128.70563 7.0529664e-39
386.40292 -7360.7314 128.65912 7.0529664e-39
427.29431 -7358.4746 128.65913 7.0529664e-39
-1143.9607 -7001.0747 123.8248 7.0529664e-39
-454.1748 -2343.7896 125.11784 7.0529664e-39
-435.12766 -2345.4998 125.02016 7.0529664e-39
-445.47531 -2339.7002 124.8213 7.0529664e-39
-276.7511 -2253.9568 119.012 7.0529664e-39
-231.63354 -2253.0151 118.69795 7.0529664e-39
1134.2252 -2282.561 133.5788 7.0529664e-39
-272.21689 -2249.4792 118.7503 7.0529664e-39
-251.07864 -2243.8743 118.33161 7.0529664e-39
-63.694309 -2165.6279 113.54578 7.0529664e-39
-43.632401 -2173.5786 113.9354 7.0529664e-39
1347.5814 -1984.3954 125.711 7.0529664e-39
1341.7742 -1966.6029 124.76891 7.0529664e-39
1316.734 -1910.5133 121.6026 7.0529664e-39
1299.3098 -1851.4771 118.5409 7.0529664e-39
1311.1511 -1876.7102 119.9802 7.0529664e-39
910.44672 -1806.0481 105.99776 7.0529664e-39
1295.6383 -1839.4094 117.9129 7.0529664e-39
920.6366 -1788.6299 105.42705 7.0529664e-39
1246.0779 -1763.1594 113.1503 7.0529664e-39
1234.1404 -1731.8297 111.44942 7.0529664e-39
1209.9758 -1672.3451 108.17844 7.0529664e-39
1209.7954 -1655.6016 107.4632 7.0529664e-39
1221.0457 -1650.6307 107.60272 7.0529664e-39
1201.0327 -1601.2065 104.8987 7.0529664e-39
1167.5461 -1530.96 100.9037 7.0529664e-39
1180.5183 -1558.3108 102.45636 7.0529664e-39
-190.18625 -1496.3588 131.96834 7.0529664e-39
1156.3889 -1506.8013 99.542999 7.0529664e-39
-2079.3496 -1462.4858 133.22989 7.0529664e-39
-1898.4983 -1443.1299 124.97826 7.0529664e-39
1135.3511 -1462.8032 97.043922 7.0529664e-39
-2119.4258 -1399.8938 133.1165 7.0529664e-39
-2114.6294 -1404.4244 133.03799 7.0529664e-39
-1906.1073 -1432.392 124.95733 7.0529664e-39
1114.8018 -1417.7129 94.51873 7.0529664e-39
-2131.386 -1374.2681 132.90956 7.0529664e-39
-522.1272 -1365.6729 127.9156 7.0529664e-39
1092.1206 -1368.585 91.762375 7.0529664e-39
-2162.5012 -1309.3979 132.48849 7.0529664e-39
-2149.5261 -1333.1743 132.56114 7.0529664e-39
-1961.9419 -1333.998 124.3386 7.0529664e-39
-1782.1714 -1311.052 115.9503 7.0529664e-39
-520.59241 -1328.6165 124.84436 7.0529664e-39
1077.6827 -1337.4965 90.017799 7.0529664e-39
1082.2239 -1347.941 90.593498 7.0529664e-39
-2173.4409 -1280.5444 132.20647 7.0529664e-39
-1785.1835 -1297.9604 115.67293 7.0529664e-39
-530.23517 -1283.137 121.47021 7.0529664e-39
672.78558 -1277.6733 126.33224 7.0529664e-39
-2187.0171 -1252.2134 132.07504 7.0529664e-39
670.38763 -1255.2612 124.502 7.0529664e-39
689.66284 -1242.1906 124.30735 7.0529664e-39
1001.0775 -1171.697 134.8299 7.0529664e-39
970.93164 -1108.5004 128.92513 7.0529664e-39
994.56628 -1099.1647 129.6877 7.0529664e-39
916.80609 -1017.368 119.81733 7.0529664e-39
891.22723 -968.46277 115.14728 7.0529664e-39
869.95819 -922.86389 110.96016 7.0529664e-39
847.47382 -872.79834 106.43462 7.0529664e-39
857.21326 -893.58649 108.33459 7.0529664e-39
828.18726 -832.33411 102.72758 7.0529664e-39
803.677 -775.72369 97.723373 7.0529664e-39
814.07892 -798.38983 99.758461 7.0529664e-39
425.0463 -736.7536 111.90897 7.0529664e-39
785.3548 -741.26605 113.46689 7.0529664e-39
430.78317 -701.284 115.46754 7.0529664e-39
452.8866 -690.14581 117.39278 7.0529664e-39
758.00677 -681.47278 117.88354 7.0529664e-39
772.04163 -710.35583 102.9446 7.0529664e-39
747.47327 -656.23163 122.13048 7.0529664e-39
716.61035 -591.53857 114.09409 7.0529664e-39
725.1333 -610.70959 116.40553 7.0529664e-39
711.24237 -568.74573 111.81982 7.0529664e-39
741.29974 -554.27533 113.65841 7.0529664e-39
752.729 -521.05151 112.41094 7.0529664e-39
783.18213 -505.53192 114.46098 7.0529664e-39
877.83582 -495.6413 123.77864 7.0529664e-39
761.62708 -466.31363 109.65192 7.0529664e-39
785.74786 -481.54358 113.1557 7.0529664e-39
824.5127 -482.53003 117.30333 7.0529664e-39
891.06024 -490.7002 124.90255 7.0529664e-39
923.88544 -477.06366 110.70549 7.0529664e-39
946.34009 -467.09445 104.74337 7.0529664e-39
553.39801 -136.13141 90.262695 7.0529664e-39
568.67285 -113.00595 91.856979 7.0529664e-39
589.03558 -131.2334 95.581497 7.0529664e-39
577.97693 -82.603462 92.481209 7.0529664e-39
591.02966 -57.258724 94.048401 7.0529664e-39
-991.02112 238.60962 125.1598 7.0529664e-39
-986.88617 250.76695 125.02777 7.0529664e-39
338.27203 509.2699 96.832932 7.0529664e-39
-340.52591 615.05017 111.352 7.0529664e-39
-187.52303 620.0296 102.59866 7.0529664e-39
-171.6317 625.46515 102.72931 7.0529664e-39
-163.09215 630.63232 103.1685 7.0529664e-39
-1739.5898 982.60657 104.7068 7.0529664e-39
-1773.3914 1020.7751 107.2364 7.0529664e-39
-370.20703 1032.5149 134.68088 7.0529664e-39
-410.94345 1077.0602 100.85664 7.0529664e-39
-362.31549 1035.1897 134.6656 7.0529664e-39
-2256.9507 1109.4131 131.79938 7.0529664e-39
-2238.4548 1118.0891 131.13298 7.0529664e-39
-2196.7791 1118.8273 129.20007 7.0529664e-39
-407.12271 1082.5586 101.1878 7.0529664e-39
-2176.2722 1142.0502 128.80627 7.0529664e-39
-2143.7271 1162.189 127.79694 7.0529664e-39
-2120.688 1172.3711 126.99319 7.0529664e-39
-2098.5144 1181.9194 126.22387 7.0529664e-39
-2047.301 1204.5702 124.4898 7.0529664e-39
-2024.4148 1214.4684 123.7222 7.0529664e-39
-1913.0522 1212.4202 118.69795 7.0529664e-39
-1999.6949 1226.4713 122.94241 7.0529664e-39
-1973.4194 1237.4434 122.0736 7.0529664e-39
-1903.1687 1227.8456 118.69797 7.0529664e-39
-1907.8795 1268.9515 120.08484 7.0529664e-39
-1869.0953 1286.3372 118.91251 7.0529664e-39
-1836.4465 1300.1709 117.92338 7.0529664e-39
-1814.4183 1310.5891 117.30233 7.0529664e-39
-1777.2201 1326.6108 116.22943 7.0529664e-39
-1738.9705 1343.7961 115.17649 7.0529664e-39
-1717.7822 1353.5776 114.61575 7.0529664e-39
-1687.991 1366.8252 113.8307 7.0529664e-39
-1646.0625 1386.5153 112.79348 7.0529664e-39
-1622.7249 1396.7495 112.2083 7.0529664e-39
-1599.4071 1400.384 111.41161 7.0529664e-39
-1549.563 1415.2548 109.98576 7.0529664e-39
-1527.5695 1439.0049 109.984 7.0529664e-39
-1504.0325 1455.6276 109.69617 7.0529664e-39
-1513.3787 1512.766 112.14285 7.0529664e-39
-1534.3021 1556.6151 114.54597 7.0529664e-39
-1526.1554 1538.4576 113.569 7.0529664e-39
-1551.1235 1593.7158 116.5522 7.0529664e-39
-1578.907 1655.7036 119.90165 7.0529664e-39
-1566.8896 1630.3406 118.50607 7.0529664e-39
-1592.1152 1688.2412 121.61565 7.0529664e-39
-685.55316 1699.7686 96.05394 7.0529664e-39
-668.66052 1704.2542 95.944878 7.0529664e-39
-1612.0615 1734.2095 124.08858 7.0529664e-39
-1627.7959 1770.4385 126.04244 7.0529664e-39
-775.22931 1798.334 102.6308 7.0529664e-39
-1651.6741 1822.2181 128.89035 7.0529664e-39
-769.99817 1821.653 103.64763 7.0529664e-39
-760.43701 1843.5886 104.5149 7.0529664e-39
-368.63437 1838.3942 98.264519 7.0529664e-39
-345.5961 1838.7955 98.055153 7.0529664e-39
-1673.8268 1870.1357 131.53334 7.0529664e-39
-756.46991 1846.2998 104.5672 7.0529664e-39
-332.78369 1847.6936 98.391602 7.0529664e-39
-1693.9395 1917.8412 134.10217 7.0529664e-39
-1045.5887 2276.418 131.28474 7.0529664e-39
-1010.2571 2267.9004 130.11673 7.0529664e-39
-427.48798 2434.3535 129.53148 7.0529664e-39
-2257.437 4760.582 91.965454 7.0529664e-39
-2241.2026 4766.0361 91.93055 7.0529664e-39
-2231.7163 4785.9355 92.174896 7.0529664e-39
2584.8926 -8518.584 155.3875 7.0529664e-39
2635.4067 -8516.1787 155.60565 7.0529664e-39
2677.7959 -8534.3965 156.12924 7.0529664e-39
2269.7136 -7903.2822 143.52856 7.0529664e-39
2315.1792 -7888.3374 143.49948 7.0529664e-39
2349.1162 -7877.4414 143.48495 7.0529664e-39
484.09375 -3076.6667 163.22539 7.0529664e-39
514.82434 -3062.7439 162.76483 7.0529664e-39
505.89819 -3059.1968 162.5031 7.0529664e-39
290.4649 -2656.5 140.05099 7.0529664e-39
303.78156 -2644.446 139.5015 7.0529664e-39
331.16479 -2642.8708 139.59048 7.0529664e-39
1195.0312 -2458.7866 143.27493 7.0529664e-39
-2255.6426 -2028.8521 158.9966 7.0529664e-39
-2249.8413 -2029.3241 158.78729 7.0529664e-39
-2264.1814 -2001.4288 158.37512 7.0529664e-39
-2283.3066 -1955.8092 157.56264 7.0529664e-39
-2305.4058 -1909.0193 156.86833 7.0529664e-39
-2324.3826 -1866.8641 156.24248 7.0529664e-39
-2323.7781 -1839.8236 155.3331 7.0529664e-39
914.77753 -1809.1277 177.36192 7.0529664e-39
925.60895 -1789.5098 176.26627 7.0529664e-39
-2097.2708 -1633.7009 139.32579 7.0529664e-39
1206.5525 -1621.6658 176.839 7.0529664e-39
1215.2782 -1638.7625 178.495 7.0529664e-39
-2119.9683 -1577.2996 138.4809 7.0529664e-39
-2105.1646 -1615.9337 139.08279 7.0529664e-39
1192.7322 -1593.0293 174.10812 7.0529664e-39
-2134.8777 -1550.1606 138.27161 7.0529664e-39
1168.5236 -1540.5894 169.1693 7.0529664e-39
1175.986 -1554.9323 170.5638 7.0529664e-39
1153.9468 -1508.7988 166.18423 7.0529664e-39
1132.5521 -1460.5182 161.69569 7.0529664e-39
-2536.2109 -1408.3557 152.03596 7.0529664e-39
-2502.9402 -1414.646 150.6752 7.0529664e-39
-2335.4238 -1411.3224 143.008 7.0529664e-39
1117.6709 -1414.6088 157.7301 7.0529664e-39
1126.8356 -1438.1403 159.8436 7.0529664e-39
-2565.95 -1353.4443 152.036 7.0529664e-39
-2552.2239 -1374.1754 151.91383 7.0529664e-39
1103.103 -1380.6987 154.61427 7.0529664e-39
-2577.2859 -1325.4449 151.88641 7.0529664e-39
-2564.1631 -1339.6582 151.61725 7.0529664e-39
-589.55219 -1319.2754 177.42651 7.0529664e-39
1073.9927 -1318.4271 148.77487 7.0529664e-39
1086.3058 -1344.3575 151.21521 7.0529664e-39
-2594.5806 -1282.3209 151.67909 7.0529664e-39
-608.1991 -1279.5812 173.96527 7.0529664e-39
661.17499 -1260.4215 174.7606 7.0529664e-39
1058.118 -1284.4263 145.59369 7.0529664e-39
-2619.1543 -1232.0009 151.69206 7.0529664e-39
-2607.8071 -1251.4194 151.59109 7.0529664e-39
667.61371 -1253.6423 174.39505 7.0529664e-39
689.54547 -1239.2483 174.1339 7.0529664e-39
1028.8113 -1221.3253 139.71065 7.0529664e-39
1039.2284 -1243.3604 141.77335 7.0529664e-39
-2635.8628 -1192.5765 151.6225 7.0529664e-39
1016.2179 -1196.7483 137.35747 7.0529664e-39
-2660.0818 -1143.4103 151.74284 7.0529664e-39
-2651.061 -1155.0635 151.55188 7.0529664e-39
898.72772 -1126.623 176.9543 7.0529664e-39
902.99255 -1139.7141 178.53854 7.0529664e-39
-2670.3945 -1117.4547 151.70888 7.0529664e-39
-2643.5312 -1089.0576 149.83783 7.0529664e-39
893.48077 -1100.9539 174.09714 7.0529664e-39
900.98254 -1092.2039 173.8466 7.0529664e-39
-2647.7974 -1065.7472 149.58488 7.0529664e-39
885.00879 -1057.5972 169.3253 7.0529664e-39
854.87378 -992.83051 160.86749 7.0529664e-39
863.92657 -1012.7798 163.45116 7.0529664e-39
-2752.7983 -948.13196 152.58551 7.0529664e-39
-2737.0718 -970.7323 152.19949 7.0529664e-39
842.4082 -965.97351 157.37396 7.0529664e-39
-2760.2759 -922.01453 152.51859 7.0529664e-39
822.70789 -924.02747 151.91014 7.0529664e-39
-2794.3716 -857.52588 153.1873 7.0529664e-39
-2778.8379 -879.65759 152.75702 7.0529664e-39
809.59717 -887.97217 147.54314 7.0529664e-39
825.06055 -870.30328 147.26056 7.0529664e-39
-2802.3215 -831.93591 153.20042 7.0529664e-39
-2788.6738 -841.95032 152.664 7.0529664e-39
-497.13211 -844.29968 155.183 7.0529664e-39
-492.17242 -846.43475 155.0787 7.0529664e-39
774.6413 -816.69104 178.28317 7.0529664e-39
839.26483 -846.71973 146.38541 7.0529664e-39
866.84723 -844.93488 148.63487 7.0529664e-39
-2821.0903 -788.23193 153.51183 7.0529664e-39
758.11401 -780.98553 172.39076 7.0529664e-39
783.93817 -799.29901 161.20061 7.0529664e-39
-2840.792 -753.21564 154.02475 7.0529664e-39
-2819.5366 -735.87732 152.71634 7.0529664e-39
428.22055 -742.70624 135.78514 7.0529664e-39
740.40155 -743.12054 166.14905 7.0529664e-39
-2866.1919 -680.87811 154.39108 7.0529664e-39
-2814.8643 -699.31671 152.0069 7.0529664e-39
714.10754 -687.08203 156.9559 7.0529664e-39
724.86804 -709.91699 160.6973 7.0529664e-39
-2889.5125 -645.61377 155.16739 7.0529664e-39
-2878.1826 -667.6571 154.84467 7.0529664e-39
696.99878 -650.19348 150.97229 7.0529664e-39
-2904.7488 -606.4975 155.51628 7.0529664e-39
703.8017 -613.87048 147.93069 7.0529664e-39
722.86951 -602.60052 149.05597 7.0529664e-39
-2930.9019 -553.61511 156.31877 7.0529664e-39
-2917.2925 -574.1142 155.82159 7.0529664e-39
712.71375 -569.86584 144.53343 7.0529664e-39
742.16016 -555.04205 146.79417 7.0529664e-39
772.0863 -543.74701 149.57088 7.0529664e-39
-2947.2646 -516.60919 156.81599 7.0529664e-39
759.646 -530.33069 146.7355 7.0529664e-39
788.15979 -516.87366 149.29782 7.0529664e-39
880.1084 -495.30719 159.95425 7.0529664e-39
-2973.5535 -459.61816 157.68823 7.0529664e-39
-2963.8972 -478.0047 157.33934 7.0529664e-39
763.76477 -464.37631 141.5732 7.0529664e-39
789.75934 -477.57339 146.18088 7.0529664e-39
831.21252 -480.71564 152.08557 7.0529664e-39
892.03064 -492.41211 161.3817 7.0529664e-39
921.27948 -478.31976 164.4201 7.0529664e-39
946.25336 -466.91367 167.12415 7.0529664e-39
-2988.4885 -427.90085 158.21857 7.0529664e-39
764.14948 -448.32391 140.3217 7.0529664e-39
-3000.4277 -383.39026 158.5256 7.0529664e-39
-3025.4385 -315.31729 159.4153 7.0529664e-39
-2981.9685 -336.09583 157.26956 7.0529664e-39
-3051.884 -290.19849 160.66556 7.0529664e-39
-3072.2839 -246.02483 161.5284 7.0529664e-39
-3085.324 -218.99387 162.10194 7.0529664e-39
-2632.1855 -157.86302 138.196 7.0529664e-39
-3133.8523 -110.97421 164.34239 7.0529664e-39
-2629.3621 -122.45199 137.94887 7.0529664e-39
-3161.9495 -56.172585 165.7375 7.0529664e-39
-3146.8574 -81.986778 164.976 7.0529664e-39
-3165.981 -32.748528 165.93115 7.0529664e-39
-3137.4224 -9.1817493 164.4265 7.0529664e-39
-3202.3589 39.685101 167.8414 7.0529664e-39
-3150.5364 29.694 165.1199 7.0529664e-39
-3141.6477 14.481479 164.64893 7.0529664e-39
-3214.6992 63.012199 168.5087 7.0529664e-39
-3244.4377 122.15014 170.15469 7.0529664e-39
-3232.303 98.619102 169.47693 7.0529664e-39
-3260.3523 158.82259 171.0713 7.0529664e-39
-3287.1201 220.05905 172.6563 7.0529664e-39
-3277.897 196.96008 172.09807 7.0529664e-39
-3300.7529 247.30765 173.47127 7.0529664e-39
-995.13147 245.46194 162.33984 7.0529664e-39
-988.98175 245.8853 161.4091 7.0529664e-39
-3330.9983 310.18011 175.3255 7.0529664e-39
-3319.9487 286.00085 174.63638 7.0529664e-39
-3334.9932 320.92914 175.58714 7.0529664e-39
-3310.1199 343.69354 174.40959 7.0529664e-39
-3376.1321 404.97009 178.2039 7.0529664e-39
-3358.8438 398.1398 177.2619 7.0529664e-39
-3310.8894 376.42178 174.6346 7.0529664e-39
-3388.2722 431.45996 179.00644 7.0529664e-39
-2939.1689 428.60205 155.66461 7.0529664e-39
-2914.075 438.97507 154.44341 7.0529664e-39
-3398.5544 454.37 179.6955 7.0529664e-39
-2917.3611 472.42188 154.88535 7.0529664e-39
-3004.5576 565.36633 160.22653 7.0529664e-39
-2837.0076 569.08252 151.64343 7.0529664e-39
-3011.4543 587.82355 160.8022 7.0529664e-39
-3068.2925 636.89691 164.23024 7.0529664e-39
-3053.6387 657.06946 163.69817 7.0529664e-39
-3062.8535 683.50671 164.46576 7.0529664e-39
684.62061 971.75378 145.95886 7.0529664e-39
-378.05148 1033.6298 161.25 7.0529664e-39
669.36969 1004.4838 148.21344 7.0529664e-39
-371.44077 1043.684 168.17949 7.0529664e-39
-353.93033 1043.0287 169.55894 7.0529664e-39
-415.62372 1089.3004 143.15587 7.0529664e-39
-1679.7548 1181.0275 179.64978 7.0529664e-39
-1645.4537 1203.5336 178.36089 7.0529664e-39
-1621.2445 1217.9291 177.40549 7.0529664e-39
-1598.6753 1232.5828 176.61383 7.0529664e-39
-1565.3043 1251.0668 175.31378 7.0529664e-39
-1552.8375 1277.5116 175.92386 7.0529664e-39
-1571.6707 1311.7919 179.1051 7.0529664e-39
-275.94604 1389.0165 173.88319 7.0529664e-39
-291.91876 1411.298 176.95428 7.0529664e-39
-681.85266 1700.7333 160.30847 7.0529664e-39
-668.22174 1706.8545 160.36659 7.0529664e-39
-372.379 1842.8967 164.49194 7.0529664e-39
-346.92404 1841.5828 163.95242 7.0529664e-39
-347.01898 1848.9829 164.59366 7.0529664e-39
-1717.6763 1968.3232 136.91086 7.0529664e-39
-1708.9758 1949.3997 135.86411 7.0529664e-39
-1731.8718 2000.5278 138.67284 7.0529664e-39
-1759.7866 2061.9106 142.06595 7.0529664e-39
-1743.9263 2027.5013 140.1557 7.0529664e-39
-1774.4856 2096.3784 143.9413 7.0529664e-39
-1801.5488 2155.3926 147.22099 7.0529664e-39
-1792.3531 2133.7827 146.04346 7.0529664e-39
-1814.3325 2185.0303 148.84344 7.0529664e-39
-1835.2537 2231.6541 151.42537 7.0529664e-39
-1854.2344 2273.1216 153.73685 7.0529664e-39
-1872.7446 2314.0515 156.01347 7.0529664e-39
-1896.0482 2365.8086 158.892 7.0529664e-39
-1912.2977 2401.8201 160.89818 7.0529664e-39
-1938.6287 2458.2561 164.0732 7.0529664e-39
-1931.3347 2441.1111 163.1312 7.0529664e-39
-1957.5072 2498.033 166.32367 7.0529664e-39
-1984.1556 2557.0366 169.6208 7.0529664e-39
-1999.5599 2589.9419 171.47876 7.0529664e-39
-2018.0798 2630.5049 173.75534 7.0529664e-39
-2040.0748 2676.5425 176.37215 7.0529664e-39
-2059.1519 2719.7395 178.77965 7.0529664e-39
4076.8513 -11720.294 216.60181 7.0529664e-39
-1093.5686 -3490.884 191.71709 7.0529664e-39
-1075.8638 -3499.323 191.8636 7.0529664e-39
-596.94 -2334.1672 210.78615 7.0529664e-39
-562.98322 -2319.0962 208.79031 7.0529664e-39
-526.26917 -2305.1487 206.86414 7.0529664e-39
-502.23193 -2290.6284 205.16464 7.0529664e-39
-473.31476 -2278.1313 203.56966 7.0529664e-39
-430.50137 -2259.4297 201.23291 7.0529664e-39
-13.357349 -2250.8618 196.92841 7.0529664e-39
1138.1935 -2281.8945 223.09691 7.0529664e-39
-407.47101 -2246.6257 199.761 7.0529664e-39
-381.82751 -2235.8398 198.44569 7.0529664e-39
-336.52112 -2214.6941 195.98712 7.0529664e-39
-4.5755334 -2246.0806 196.50717 7.0529664e-39
23.816921 -2227.8782 194.92867 7.0529664e-39
-302.37253 -2199.6558 194.25562 7.0529664e-39
-245.2524 -2173.824 191.39403 7.0529664e-39
-220.74866 -2161.9573 190.13025 7.0529664e-39
24.963551 -2200.4517 192.52704 7.0529664e-39
160.33763 -2180.156 191.25456 7.0529664e-39
-199.01189 -2150.4258 188.94394 7.0529664e-39
-157.15636 -2143.2993 188.02173 7.0529664e-39
-111.24741 -2136.4475 187.17093 7.0529664e-39
-75.536301 -2121.5305 185.72888 7.0529664e-39
-52.217476 -2110.0383 184.66125 7.0529664e-39
-30.635963 -2097.8677 183.56088 7.0529664e-39
1391.5188 -2045.0208 216.40775 7.0529664e-39
1396.9395 -2034.0803 215.8848 7.0529664e-39
1319.3811 -1905.4407 202.76785 7.0529664e-39
1298.5303 -1853.8047 198.01781 7.0529664e-39
1312.4821 -1879.3013 200.54539 7.0529664e-39
1282.2832 -1823.8278 195.0546 7.0529664e-39
1249.9113 -1760.0967 188.8665 7.0529664e-39
1264.7222 -1786.2312 191.4812 7.0529664e-39
1241.5963 -1725.2679 185.96547 7.0529664e-39
1231.4132 -1677.2014 182.03929 7.0529664e-39
1223.6642 -1656.104 180.15089 7.0529664e-39
-2041.9529 -1561.9441 224.91995 7.0529664e-39
-2074.9905 -1496.2703 223.81592 7.0529664e-39
-2065.8936 -1517.2739 224.25169 7.0529664e-39
-195.74933 -1505.6626 186.43199 7.0529664e-39
-165.20166 -1497.0317 184.92995 7.0529664e-39
-2088.1572 -1468.2135 223.33035 7.0529664e-39
-1900.1581 -1442.0376 208.6944 7.0529664e-39
-1911.9894 -1426.1681 208.68817 7.0529664e-39
916.91339 -1359.4434 201.34036 7.0529664e-39
-586.64514 -1345.6593 180.24475 7.0529664e-39
935.64276 -1342.2772 200.9016 7.0529664e-39
960.64294 -1320.0016 200.45882 7.0529664e-39
-614.34131 -1272.139 223.75716 7.0529664e-39
983.2251 -1299.0415 200.03986 7.0529664e-39
1000.5134 -1285.3904 200.00284 7.0529664e-39
-679.01172 -1245.2201 224.63986 7.0529664e-39
-651.56281 -1250.2384 223.30608 7.0529664e-39
-628.44342 -1259.3613 222.9191 7.0529664e-39
666.65045 -1238.246 222.73662 7.0529664e-39
648.62152 -1188.6686 214.47169 7.0529664e-39
627.9646 -1138.0381 205.86775 7.0529664e-39
632.38397 -1136.2574 205.96162 7.0529664e-39
636.36047 -1122.0233 204.30339 7.0529664e-39
713.93994 -1057.817 202.1329 7.0529664e-39
730.99878 -1043.2109 201.76137 7.0529664e-39
708.43225 -1016.551 196.24702 7.0529664e-39
743.1076 -1023.2324 200.29477 7.0529664e-39
742.37836 -962.61597 192.55206 7.0529664e-39
768.27411 -946.59753 193.09227 7.0529664e-39
1129.6034 -967.16254 182.59073 7.0529664e-39
789.36572 -937.56781 194.12645 7.0529664e-39
817.69373 -922.82355 195.28711 7.0529664e-39
800.1803 -871.38751 187.37718 7.0529664e-39
811.92407 -896.37378 191.554 7.0529664e-39
786.9245 -843.01318 182.65286 7.0529664e-39
-3409.4092 476.28864 180.41513 7.0529664e-39
-3472.4941 612.80573 184.79826 7.0529664e-39
-3464.5068 594.6886 184.2226 7.0529664e-39
-1720.7787 624.06415 224.75145 7.0529664e-39
-3480.4756 630.6272 185.37399 7.0529664e-39
-1712.2527 632.36176 224.11774 7.0529664e-39
-1701.9542 648.15259 223.61671 7.0529664e-39
-3559.8486 806.16681 191.2879 7.0529664e-39
-1537.7498 799.38702 212.80132 7.0529664e-39
-3569.77 830.73303 192.08342 7.0529664e-39
-1530.5344 810.71832 212.662 7.0529664e-39
-1507.7982 828.01813 211.22108 7.0529664e-39
-1480.7832 851.14075 209.71277 7.0529664e-39
-1457.4741 869.9278 208.41399 7.0529664e-39
-1430.345 891.55432 206.94937 7.0529664e-39
-3620.7075 944.47339 196.1028 7.0529664e-39
-2030.7891 917.62054 194.96744 7.0529664e-39
-2014.9391 937.49207 194.43202 7.0529664e-39
-1408.611 909.26477 205.86169 7.0529664e-39
-1388.1012 925.19952 204.82756 7.0529664e-39
-3632.4353 966.54248 196.99254 7.0529664e-39
-1992.9667 958.91266 193.49666 7.0529664e-39
-1963.5653 980.87012 192.03316 7.0529664e-39
-1410.0728 968.98175 210.07564 7.0529664e-39
682.23309 987.84692 190.1461 7.0529664e-39
-3655.0146 1011.6993 198.75452 7.0529664e-39
-1944.2217 995.62097 191.10349 7.0529664e-39
-1912.2324 1013.1 189.33134 7.0529664e-39
-1887.5175 1030.3909 188.1402 7.0529664e-39
-1440.1117 1033.6823 217.6586 7.0529664e-39
-1431.1899 1013.6965 215.34317 7.0529664e-39
625.15869 1005.0055 187.46063 7.0529664e-39
655.57141 1014.9038 191.37152 7.0529664e-39
678.63074 995.90295 190.8761 7.0529664e-39
-3666.2466 1039.5183 199.71399 7.0529664e-39
-1897.8247 1066.4387 190.45706 7.0529664e-39
-1884.2533 1041.1674 188.34354 7.0529664e-39
-1451.3182 1058.8105 220.58353 7.0529664e-39
-517.45032 1069.9371 188.25189 7.0529664e-39
-492.47974 1079.1504 187.87781 7.0529664e-39
-3699.332 1109.1528 202.4006 7.0529664e-39
-1915.261 1099.4691 193.21184 7.0529664e-39
-1464.4867 1086.7058 223.9146 7.0529664e-39
-471.01257 1090.9102 188.21201 7.0529664e-39
-429.49075 1101.3065 187.23366 7.0529664e-39
-3716.5601 1149.6626 203.88345 7.0529664e-39
-1939.479 1153.1121 197.40775 7.0529664e-39
-1930.984 1133.7051 195.9043 7.0529664e-39
-1705.6377 1161.4149 180.53441 7.0529664e-39
-3741.1011 1203.5508 205.95944 7.0529664e-39
-3730.1392 1179.332 205.02609 7.0529664e-39
-1958.6508 1191.7572 200.58894 7.0529664e-39
-1694.542 1173.3545 180.32526 7.0529664e-39
-3756.9597 1236.9896 207.29224 7.0529664e-39
-1983.5291 1254.6638 205.3389 7.0529664e-39
-1974.5898 1232.9276 203.66553 7.0529664e-39
-462.54471 1218.9392 206.4935 7.0529664e-39
-3781.9873 1294.8665 209.50079 7.0529664e-39
-3772.2461 1270.7379 208.61115 7.0529664e-39
-1998.0393 1283.7661 207.77928 7.0529664e-39
-3798.0337 1327.3524 210.85283 7.0529664e-39
-3344.3718 1340.5835 188.82816 7.0529664e-39
-2033.4492 1343.1909 213.21201 7.0529664e-39
-2011.2845 1334.2284 211.16594 7.0529664e-39
-1583.3229 1336.2556 181.26218 7.0529664e-39
-3820.3633 1376.1799 212.81107 7.0529664e-39
-3334.8682 1359.4122 188.73656 7.0529664e-39
-1597.3256 1367.845 183.98578 7.0529664e-39
-3834.0347 1405.0887 214.00174 7.0529664e-39
-1624.1152 1426.6644 189.12798 7.0529664e-39
-1614.1235 1404.7969 187.21054 7.0529664e-39
-1539.7297 1421.2246 183.32341 7.0529664e-39
-3954.624 1484.8702 221.3811 7.0529664e-39
-3865.8267 1475.446 216.854 7.0529664e-39
-1639.4475 1460.4418 192.09125 7.0529664e-39
-1503.6128 1455.0691 183.06335 7.0529664e-39
-321.41028 1476.5746 185.5461 7.0529664e-39
-309.70264 1451.1757 182.19467 7.0529664e-39
-3943.7717 1491.0116 220.9624 7.0529664e-39
-3878.2495 1501.5608 217.95309 7.0529664e-39
-1666.6587 1513.6206 196.972 7.0529664e-39
-1646.4423 1515.9299 195.80991 7.0529664e-39
-1509.6147 1504.7106 186.47844 7.0529664e-39
-608.72028 1520.3699 201.0844 7.0529664e-39
-335.03259 1506.9432 189.54747 7.0529664e-39
-3897.416 1540.7434 219.63658 7.0529664e-39
-1624.2932 1532.2617 195.35959 7.0529664e-39
-1534.8691 1561.6272 191.5683 7.0529664e-39
-1523.0498 1534.7966 189.17151 7.0529664e-39
-608.27484 1542.1699 203.55228 7.0529664e-39
-349.31879 1540.0203 193.8941 7.0529664e-39
-1550.3201 1594.7172 194.58391 7.0529664e-39
-3945.3364 1646.509 224.05022 7.0529664e-39
-1578.1702 1656.9569 200.19675 7.0529664e-39
-1565.5923 1628.3176 197.62561 7.0529664e-39
-1591.6205 1687.0977 202.92035 7.0529664e-39
-682.2793 1688.7004 223.6302 7.0529664e-39
-1620.2177 1752.7415 208.8252 7.0529664e-39
-1608.5419 1724.1562 206.29765 7.0529664e-39
-1632.9342 1780.9741 211.39627 7.0529664e-39
-1652.8152 1822.3928 215.24565 7.0529664e-39
-1678.9099 1877.7657 220.37331 7.0529664e-39
-1663.7726 1846.5101 217.4536 7.0529664e-39
-1691.4008 1906.8816 223.00255 7.0529664e-39
-861.01599 2092.104 197.93069 7.0529664e-39
-992.1286 2311.4663 220.0683 7.0529664e-39
-985.90356 2311.4199 219.85034 7.0529664e-39
-2086.4841 2777.926 182.0768 7.0529664e-39
-2099.7615 2810.4023 183.8562 7.0529664e-39
-2121.8721 2858.6821 186.5777 7.0529664e-39
-2145.7295 2909.354 189.45621 7.0529664e-39
-2164.6191 2950.0081 191.7589 7.0529664e-39
-2177.0786 2976.7805 193.2767 7.0529664e-39
-2212.2263 3054.9482 197.6729 7.0529664e-39
-2200.5283 3027.6562 196.1552 7.0529664e-39
-2225.5425 3083.5215 199.2953 7.0529664e-39
-2250.7581 3139.1931 202.4355 7.0529664e-39
-2237.0249 3109.7124 200.7607 7.0529664e-39
-2267.3335 3173.9951 204.42419 7.0529664e-39
-2297.2144 3236.0818 207.98309 7.0529664e-39
-2282.5972 3204.8137 206.2037 7.0529664e-39
-2308.855 3263.3276 209.50079 7.0529664e-39
-2349.061 3348.6067 214.3681 7.0529664e-39
-2368.3154 3393.6382 216.8802 7.0529664e-39
-2398.071 3458.0938 220.5437 7.0529664e-39
-2382.967 3424.8125 218.65961 7.0529664e-39
-2411.8992 3491.0303 222.3755 7.0529664e-39
-4399.2622 9494.75 182.65691 7.0529664e-39
-4368.1479 9501.4023 182.5347 7.0529664e-39
-5775.0371 9710.8213 197.2122 7.0529664e-39
-5736.4595 9735.6699 197.24272 7.0529664e-39
4676.2075 -14090.033 259.1333 7.0529664e-39
4711.8486 -14078.15 259.13336 7.0529664e-39
4756.6396 -14060.969 259.09845 7.0529664e-39
4786.7251 -14052.872 259.1333 7.0529664e-39
4163.9287 -13018.545 238.5802 7.0529664e-39
4213.77 -12999.525 238.53076 7.0529664e-39
4264.4355 -12985.63 238.5744 7.0529664e-39
842.3111 -4459.9263 237.8669 7.0529664e-39
790.73425 -4432.8354 235.98282 7.0529664e-39
821.55389 -4443.4824 236.82019 7.0529664e-39
305.47595 -2645.2444 232.9673 7.0529664e-39
329.87787 -2643.4453 233.06691 7.0529664e-39
1190.4573 -2454.0535 238.63242 7.0529664e-39
170.13663 -2173.7246 267.71649 7.0529664e-39
-201.34349 -2150.1511 265.16333 7.0529664e-39
-167.44022 -2134.3464 262.87216 7.0529664e-39
155.6835 -2140.2273 263.48157 7.0529664e-39
-96.878296 -2098.9827 257.99741 7.0529664e-39
-61.573521 -2079.6687 255.46523 7.0529664e-39
-38.549702 -2070.4216 254.2601 7.0529664e-39
-17.759844 -2060.427 253.00073 7.0529664e-39
21.609625 -2043.5704 250.93835 7.0529664e-39
53.435818 -2030.0377 249.34465 7.0529664e-39
109.73346 -2037.0581 250.4821 7.0529664e-39
76.066711 -2019.4985 248.14124 7.0529664e-39
97.413445 -2013.2548 247.48618 7.0529664e-39
-1954.165 -1941.7025 241.01468 7.0529664e-39
-1967.4369 -1912.7532 240.07047 7.0529664e-39
-1988.4171 -1863.288 238.4097 7.0529664e-39
-1977.8575 -1885.4641 239.06821 7.0529664e-39
-2009.083 -1821.2435 237.24663 7.0529664e-39
897.79968 -1810.991 248.18689 7.0529664e-39
-2033.3413 -1769.1702 235.80611 7.0529664e-39
-2022.6338 -1794.097 236.54068 7.0529664e-39
895.05615 -1791.2914 245.8714 7.0529664e-39
908.5874 -1786.5775 246.10298 7.0529664e-39
-2397.8562 -1723.0344 258.32959 7.0529664e-39
-2050.5269 -1731.995 234.83243 7.0529664e-39
-2421.2764 -1673.6575 257.5162 7.0529664e-39
-2202.0764 -1695.8271 243.16451 7.0529664e-39
859.25739 -1669.783 230.5768 7.0529664e-39
-2440.8262 -1624.1383 256.49939 7.0529664e-39
-2232.8818 -1626.4553 241.68291 7.0529664e-39
-2092.5166 -1632.2836 232.18291 7.0529664e-39
-1998.2151 -1634.0018 225.83141 7.0529664e-39
860.59302 -1659.782 229.56122 7.0529664e-39
-2453.011 -1597.4061 256.10718 7.0529664e-39
-2241.6116 -1616.1066 241.77 7.0529664e-39
-2044.6302 -1610.4818 227.70892 7.0529664e-39
-2013.0067 -1608.2285 225.41963 7.0529664e-39
-2478.2983 -1538.2085 255.19205 7.0529664e-39
-2470.1348 -1559.0482 255.55516 7.0529664e-39
-2493.3926 -1507.9794 254.93929 7.0529664e-39
-197.67467 -1515.0902 242.0041 7.0529664e-39
-167.25366 -1502.9515 239.5168 7.0529664e-39
-2508.8687 -1478.0312 254.75623 7.0529664e-39
-2540.4868 -1415.1007 254.42007 7.0529664e-39
-2568.5686 -1352.5344 253.9718 7.0529664e-39
-2557.3228 -1377.3668 254.12677 7.0529664e-39
-588.23822 -1355.4423 234.026 7.0529664e-39
713.26038 -1391.554 247.66707 7.0529664e-39
724.94659 -1385.2821 247.63579 7.0529664e-39
-2579.1775 -1328.4193 253.82368 7.0529664e-39
-588.92212 -1324.8088 229.63016 7.0529664e-39
-2611.2954 -1261.2251 253.7104 7.0529664e-39
-2599.6648 -1284.9596 253.71042 7.0529664e-39
-597.43018 -1295.0564 225.89136 7.0529664e-39
-2622.9478 -1236.9525 253.7191 7.0529664e-39
-720.4176 -1254.8711 229.1765 7.0529664e-39
-700.80737 -1249.6273 226.92383 7.0529664e-39
665.52307 -1256.9543 225.26559 7.0529664e-39
-2641.5806 -1192.6576 253.57478 7.0529664e-39
-2660.5186 -1142.7074 253.32907 7.0529664e-39
-2651.1404 -1166.53 253.4053 7.0529664e-39
-2673.8032 -1116.8286 253.51428 7.0529664e-39
-2707.6287 -1049.0551 254.04654 7.0529664e-39
-2722.9998 -1011.7126 254.14616 7.0529664e-39
-2749.6909 -952.16406 254.58194 7.0529664e-39
-2738.9431 -974.13818 254.33295 7.0529664e-39
-2763.7415 -921.24213 254.87828 7.0529664e-39
-2792.5234 -859.62592 255.62781 7.0529664e-39
-2781.7141 -878.33423 255.21381 7.0529664e-39
-2804.1455 -834.5213 255.96675 7.0529664e-39
-2835.9434 -766.78949 257.02231 7.0529664e-39
-2824.1528 -792.41168 256.62527 7.0529664e-39
-2839.3257 -753.36224 257.00485 7.0529664e-39
-2873.4714 -688.05304 258.50394 7.0529664e-39
-2889.5715 -654.47638 259.21085 7.0529664e-39
-2910.4207 -608.26514 260.13376 7.0529664e-39
-2933.1104 -557.23438 261.20575 7.0529664e-39
-2924.3364 -579.03467 260.81354 7.0529664e-39
-2951.345 -517.72498 262.15479 7.0529664e-39
-2975.7546 -465.71872 263.51541 7.0529664e-39
-2964.6609 -487.78339 262.86176 7.0529664e-39
-2994.3586 -428.45517 264.64359 7.0529664e-39
-3015.9441 -384.7464 265.9993 7.0529664e-39
-3009.6797 -396.23013 265.58533 7.0529664e-39
-3044.8643 -323.91898 267.89499 7.0529664e-39
-3060.7642 -287.7106 268.96259 7.0529664e-39
-3053.7847 -301.89395 268.47458 7.0529664e-39
-2626.6465 -232.5753 230.70125 7.0529664e-39
-2623.6111 -201.1748 230.21318 7.0529664e-39
-2627.522 -154.92705 230.27997 7.0529664e-39
-2607.4001 -137.5607 228.4352 7.0529664e-39
-2622.2959 -110.8062 229.62631 7.0529664e-39
-2605.2686 -128.42206 228.20857 7.0529664e-39
-1675.6534 158.18623 266.58517 7.0529664e-39
-1665.7172 181.83701 265.39111 7.0529664e-39
-1650.8761 205.47169 263.49823 7.0529664e-39
-1629.9938 239.13171 260.93268 7.0529664e-39
-1615.4647 260.04977 259.15979 7.0529664e-39
-1592.4103 290.8497 256.39612 7.0529664e-39
-1565.9868 334.43527 253.62915 7.0529664e-39
-1580.2104 369.91803 257.04791 7.0529664e-39
-1608.137 429.6958 263.64423 7.0529664e-39
-1834.5557 489.50995 233.13605 7.0529664e-39
-1627.7378 471.80783 268.42197 7.0529664e-39
-1619.2786 455.15961 266.4079 7.0529664e-39
-3015.1687 529.48541 267.82959 7.0529664e-39
-3010.3164 534.05103 267.48099 7.0529664e-39
-2838.8032 533.31781 252.70805 7.0529664e-39
-2831.2256 538.54901 252.1416 7.0529664e-39
-1818.4564 517.34491 232.14587 7.0529664e-39
-1795.8402 538.77789 230.2112 7.0529664e-39
-1409.4332 527.85126 238.37772 7.0529664e-39
-3002.9678 549.52649 267.08878 7.0529664e-39
-2838.8425 582.21442 253.5361 7.0529664e-39
-2819.9753 558.31677 251.50661 7.0529664e-39
-1777.3706 563.30548 228.93916 7.0529664e-39
-1397.6122 543.68835 237.51965 7.0529664e-39
-1379.4868 565.38147 236.1378 7.0529664e-39
-2840.9536 586.7821 253.7975 7.0529664e-39
-1757.2195 588.2973 227.53008 7.0529664e-39
-1739.1602 605.78851 226.12857 7.0529664e-39
-1356.4233 590.91016 234.33884 7.0529664e-39
-1336.1442 614.36554 232.93089 7.0529664e-39
-1710.6647 667.30432 225.4583 7.0529664e-39
-1312.4908 637.62384 231.1124 7.0529664e-39
-1291.4976 659.80621 229.70839 7.0529664e-39
-1727.6858 696.75568 228.73769 7.0529664e-39
-1285.157 695.27441 231.43176 7.0529664e-39
-1757.89 760.34662 235.16721 7.0529664e-39
-1746.6212 735.92456 232.71826 7.0529664e-39
-1311.5851 745.56909 238.95364 7.0529664e-39
-1301.5996 725.06427 235.98135 7.0529664e-39
-1769.3063 786.43964 237.73999 7.0529664e-39
-1330.7894 786.44501 244.83417 7.0529664e-39
-1789.3915 831.28027 242.26407 7.0529664e-39
-1356.4399 843.80859 253.01709 7.0529664e-39
-1346.027 820.79413 249.70068 7.0529664e-39
-1810.1627 877.77051 247.01559 7.0529664e-39
-1371.7314 876.61212 257.83878 7.0529664e-39
-1829.2809 920.83472 251.46214 7.0529664e-39
-1398.8065 938.55206 266.79901 7.0529664e-39
-1387.165 911.73975 262.91418 7.0529664e-39
-1405.7216 954.49646 269.11945 7.0529664e-39
-1476.1562 1111.5691 226.89027 7.0529664e-39
-1492.4521 1149.5463 231.30801 7.0529664e-39
-1483.3522 1127.97 228.80969 7.0529664e-39
-1510.4113 1188.5642 235.99127 7.0529664e-39
-1536.6787 1246.8386 242.97704 7.0529664e-39
-1527.1937 1225.2719 240.40759 7.0529664e-39
-1553.5741 1283.7673 247.45572 7.0529664e-39
-1577.7854 1334.5166 253.73199 7.0529664e-39
-1569.1713 1317.0116 251.5383 7.0529664e-39
-1592.7458 1368.9724 257.87555 7.0529664e-39
-1623.7754 1436.0936 266.16266 7.0529664e-39
-1611.823 1408.7185 262.84167 7.0529664e-39
-1538.1465 1417.87 256.85999 7.0529664e-39
-1632.6482 1455.4985 268.55942 7.0529664e-39
-1500.7897 1458.0709 256.9267 7.0529664e-39
-1508.1361 1513.96 262.3847 7.0529664e-39
-1531.2996 1569.181 269.20941 7.0529664e-39
-1521.4562 1546.5134 266.37592 7.0529664e-39
-608.61023 1530.925 260.93271 7.0529664e-39
-3966.2666 1694.4988 226.039 7.0529664e-39
-3956.6328 1673.7889 225.14931 7.0529664e-39
-3981.1167 1724.4365 227.3736 7.0529664e-39
-730.52771 1800.8759 238.62019 7.0529664e-39
-4070.906 1922.0023 235.93051 7.0529664e-39
-1700.9946 1930.7579 225.12331 7.0529664e-39
-4085.7139 1957.126 237.42204 7.0529664e-39
-1716.1989 1962.4785 228.08655 7.0529664e-39
-1708.1594 1944.3571 226.4306 7.0529664e-39
-4103.814 1993.1577 239.09686 7.0529664e-39
-1736.6982 2008.4594 232.2991 7.0529664e-39
-1758.0815 2056.6396 236.715 7.0529664e-39
-1750.301 2037.0691 234.97189 7.0529664e-39
-1772.5629 2089.6655 239.73642 7.0529664e-39
-1800.0466 2149.0178 245.2563 7.0529664e-39
-1792.1528 2133.5349 243.7746 7.0529664e-39
-1811.7112 2177.343 247.81284 7.0529664e-39
-1832.9805 2224.4004 252.17062 7.0529664e-39
-1853.9523 2271.188 256.49936 7.0529664e-39
-1874.2153 2318.9014 260.85712 7.0529664e-39
-1894.1344 2366.8047 265.2149 7.0529664e-39
-1886.4099 2348.738 263.55899 7.0529664e-39
-1909.7546 2397.0371 268.13464 7.0529664e-39
-2482.3101 3628.0386 230.3829 7.0529664e-39
-2735.3401 4178.4463 261.73209 7.0529664e-39
4579.7666 -16938.104 306.27231 7.0529664e-39
-1222.0643 -3337.0259 310.91357 7.0529664e-39
-1145.396 -3354.4451 310.11465 7.0529664e-39
-1189.749 -3323.1453 308.81027 7.0529664e-39
-1163.3684 -3322.0728 307.95026 7.0529664e-39
485.17047 -3084.1453 273.14609 7.0529664e-39
514.51062 -3067.3528 272.10989 7.0529664e-39
-636.20172 -2430.24 308.45129 7.0529664e-39
-461.7594 -2457.8777 307.07013 7.0529664e-39
-431.14514 -2443.0933 304.61243 7.0529664e-39
-642.78497 -2408.9941 306.1358 7.0529664e-39
