# .PCD v0.7 - Point Cloud Data file format
VERSION 0.7
FIELDS x y z rgb
SIZE 4 4 4 4
TYPE F F F F
COUNT 1 1 1 1
WIDTH 728
HEIGHT 1
VIEWPOINT 0 0 0 1 0 0 0
POINTS 728
DATA ascii
1291.072 -4605.4546 0 7.0529664e-39
1257.8688 -4529.5879 0 7.0529664e-39
1211.5219 -4443.8105 0 7.0529664e-39
1216.8934 -4433.0103 0 7.0529664e-39
1169.4753 -4343.3086 0 7.0529664e-39
1134.3523 -4251.2627 0 7.0529664e-39
1096.4072 -4161.4893 0 7.0529664e-39
1053.209 -4075.3503 0 7.0529664e-39
1001.8981 -3981.3716 0 7.0529664e-39
965.50696 -3886.8765 0 7.0529664e-39
928.2002 -3799.9412 0 7.0529664e-39
890.59711 -3709.5891 0 7.0529664e-39
840.78949 -3616.8904 0 7.0529664e-39
855.03711 -3625.5396 0 7.0529664e-39
799.58057 -3526.4829 0 7.0529664e-39
753.64716 -3427.7878 0 7.0529664e-39
706.92053 -3334.3857 0 7.0529664e-39
720.61761 -3332.9883 0 7.0529664e-39
713.54163 -3328.374 0 7.0529664e-39
671.02228 -3254.5442 0 7.0529664e-39
677.99634 -3251.0542 0 7.0529664e-39
626.40582 -3163.5803 0 7.0529664e-39
635.62982 -3159.0171 0 7.0529664e-39
583.4472 -3073.1047 0 7.0529664e-39
595.1759 -3069.0667 0 7.0529664e-39
534.30054 -2978.4546 0 7.0529664e-39
548.29803 -2977.9397 0 7.0529664e-39
401.0069 -2683.2 0 7.0529664e-39
412.6618 -2682.6892 0 7.0529664e-39
378.16647 -2614.5862 0 7.0529664e-39
328.51187 -2521.3533 0 7.0529664e-39
341.85193 -2517.6433 0 7.0529664e-39
281.25119 -2430.7832 0 7.0529664e-39
1166.7031 -2457.071 0 7.0529664e-39
1173.5684 -2457.1255 0 7.0529664e-39
295.88068 -2426.6819 0 7.0529664e-39
250.99887 -2326.6033 0 7.0529664e-39
1132.178 -2282.769 44.477451 7.0529664e-39
207.59933 -2234.1277 0 7.0529664e-39
166.0295 -2153.5935 0 7.0529664e-39
180.5768 -2150.4316 0 7.0529664e-39
1408.7383 -2081.6873 21.955124 7.0529664e-39
120.53658 -2054.6992 0 7.0529664e-39
140.30833 -2054.5464 0 7.0529664e-39
1387.2727 -2029.098 0 7.0529664e-39
1399.7725 -2054.5635 28.9652 7.0529664e-39
1369.3876 -1992.8618 0 7.0529664e-39
75.255463 -1961.5474 0 7.0529664e-39
95.218628 -1959.1843 0 7.0529664e-39
1349.6428 -1946.9528 0 7.0529664e-39
1357.0166 -1961.0129 27.731901 7.0529664e-39
933.88318 -1905.4508 0 7.0529664e-39
1332.1233 -1908.6434 13.45 7.0529664e-39
33.136375 -1871.8383 0 7.0529664e-39
50.3587 -1870.0668 0 7.0529664e-39
935.62775 -1885.6361 0 7.0529664e-39
1312.0847 -1863.802 19.930649 7.0529664e-39
-2121.7109 -1806.3557 0 7.0529664e-39
-2108.553 -1804.0591 0 7.0529664e-39
908.37384 -1807.9744 17.661837 7.0529664e-39
1292.7617 -1822.6641 19.481251 7.0529664e-39
-2136.5444 -1781.387 0 7.0529664e-39
918.92041 -1786.9576 16.228062 7.0529664e-39
1272.3718 -1781.6401 0 7.0529664e-39
-2162.8745 -1732.1694 0 7.0529664e-39
-2148.4321 -1743.1669 0 7.0529664e-39
1252.6655 -1739.4441 31.18745 7.0529664e-39
1260.1715 -1753.0684 0 7.0529664e-39
1232.4873 -1690.8153 18.269751 7.0529664e-39
1209.905 -1627.3555 17.731649 7.0529664e-39
1222.1244 -1656.1926 15.402987 7.0529664e-39
1196.3879 -1598.2273 20.921942 7.0529664e-39
1165.9165 -1534.5596 11.204433 7.0529664e-39
1179.886 -1563.6375 17.125175 7.0529664e-39
-2243.3379 -1497.9719 0 7.0529664e-39
1152.3204 -1504.8335 16.562334 7.0529664e-39
-2246.0867 -1476.9834 0 7.0529664e-39
-1893.0347 -1445.5034 20.768351 7.0529664e-39
-1886.1443 -1445.9822 41.484402 7.0529664e-39
1123.0238 -1443.627 0 7.0529664e-39
1134.0547 -1464.7817 21.547918 7.0529664e-39
-2209.1858 -1401.0474 0 7.0529664e-39
-2201.1101 -1417.7629 0 7.0529664e-39
-1900.9825 -1429.41 19.154694 7.0529664e-39
1111.0129 -1415.8745 13.475758 7.0529664e-39
-2222.5886 -1370.1342 0 7.0529664e-39
1092.6332 -1375.5559 17.517231 7.0529664e-39
-2251.2571 -1308.6854 0 7.0529664e-39
-2241.2717 -1330.895 0 7.0529664e-39
-2153.9534 -1312.0726 44.023697 7.0529664e-39
-1965.8743 -1334.2451 33.18401 7.0529664e-39
1070.2305 -1326.8132 11.165174 7.0529664e-39
1081.5862 -1348.5925 30.1752 7.0529664e-39
-2257.2341 -1297.1262 0 7.0529664e-39
-2173.3186 -1277.7373 44.006237 7.0529664e-39
-2158.1934 -1298.3142 43.962601 7.0529664e-39
667.07581 -1273.3119 15.071879 7.0529664e-39
1050.62 -1282.8831 16.079477 7.0529664e-39
-2304.3301 -1229.8809 0 7.0529664e-39
-2288.9592 -1226.8149 0 7.0529664e-39
-2206.4106 -1220.7723 44.014999 7.0529664e-39
-2194.2256 -1234.4153 25.140194 7.0529664e-39
668.8111 -1255.6794 12.41041 7.0529664e-39
686.86786 -1242.4907 12.392562 7.0529664e-39
1027.3818 -1233.4153 9.3777676 7.0529664e-39
1037.438 -1253.8241 14.20625 7.0529664e-39
-2210.7617 -1200.4502 26.363611 7.0529664e-39
-2200.5664 -1210.7722 0 7.0529664e-39
1011.4347 -1198.1719 0 7.0529664e-39
962.65906 -1136.9651 26.004072 7.0529664e-39
942.87994 -1082.9399 12.53955 7.0529664e-39
954.7016 -1108.3076 10.197451 7.0529664e-39
-2501.6599 -1077.9026 0 7.0529664e-39
931.17236 -1056.5199 12.3054 7.0529664e-39
-1137.0464 -993.72784 14.630934 7.0529664e-39
910.53003 -1012.2593 12.938573 7.0529664e-39
-1148.7106 -985.12274 19.202391 7.0529664e-39
-1088.1993 -965.3324 9.515913 7.0529664e-39
-1052.1693 -951.50317 12.396194 7.0529664e-39
889.81287 -966.81677 10.690181 7.0529664e-39
-2668.6223 -925.83167 0 7.0529664e-39
-1007.1845 -932.94153 12.924169 7.0529664e-39
-959.47504 -911.46301 11.536038 7.0529664e-39
-938.48096 -906.70038 7.5627003 7.0529664e-39
868.40948 -920.75659 10.221739 7.0529664e-39
-2701.8462 -858.63342 0 7.0529664e-39
-2689.1099 -881.72797 0 7.0529664e-39
-904.61981 -882.11572 6.2953286 7.0529664e-39
-876.49762 -876.80762 13.209957 7.0529664e-39
-846.6405 -864.84412 6.9809666 7.0529664e-39
846.32202 -872.59515 9.8096075 7.0529664e-39
857.58807 -896.37225 14.438968 7.0529664e-39
-2711.6003 -834.70306 0 7.0529664e-39
-819.15393 -850.41486 7.9193621 7.0529664e-39
-779.18744 -832.41614 9.9967394 7.0529664e-39
-758.81818 -827.94775 19.603426 7.0529664e-39
827.73944 -832.12097 11.524037 7.0529664e-39
-2734.042 -789.54669 0 7.0529664e-39
-726.11731 -804.95258 8.1353149 7.0529664e-39
-718.56946 -807.45178 12.5832 7.0529664e-39
803.74359 -780.32568 11.410975 7.0529664e-39
813.98706 -802.57031 6.6493673 7.0529664e-39
-2753.6462 -740.6875 0 7.0529664e-39
-2741.8274 -762.95343 0 7.0529664e-39
424.29922 -741.24902 19.38245 7.0529664e-39
786.88525 -743.51984 8.9457321 7.0529664e-39
-2774.3455 -697.00702 0 7.0529664e-39
430.69577 -702.80322 19.186735 7.0529664e-39
452.42886 -691.49982 19.261578 7.0529664e-39
759.54053 -685.04572 7.1380401 7.0529664e-39
770.95648 -708.75171 10.647417 7.0529664e-39
-2797.4619 -642.03937 0 7.0529664e-39
-2785.6782 -665.18353 0 7.0529664e-39
744.216 -651.59314 8.6462173 7.0529664e-39
-2813.0115 -607.97076 0 7.0529664e-39
-1450.3827 -593.6355 11.72053 7.0529664e-39
-1437.5542 -590.24377 27.125401 7.0529664e-39
714.87378 -592.02692 8.8372555 7.0529664e-39
725.08698 -613.67743 8.3036003 7.0529664e-39
-2840.6177 -551.12592 0 7.0529664e-39
-2828.3743 -570.7063 0 7.0529664e-39
-1457.3374 -575.87854 14.550666 7.0529664e-39
711.90454 -569.19818 7.94769 7.0529664e-39
742.56171 -555.80701 8.2736082 7.0529664e-39
774.92053 -545.11017 7.1843128 7.0529664e-39
-2849.249 -534.76672 0 7.0529664e-39
-82.843109 -505.43631 26.842545 7.0529664e-39
-7.5157003 -502.86481 8.7785673 7.0529664e-39
2.7286999 -508.39145 0 7.0529664e-39
797.15015 -534.5553 8.9705391 7.0529664e-39
831.23016 -518.75604 8.3143206 7.0529664e-39
857.64642 -501.56226 8.0052776 7.0529664e-39
-2528.1099 -461.03265 22.46125 7.0529664e-39
-2515.1899 -453.46335 29.727264 7.0529664e-39
-411.27945 -467.59332 8.1028128 7.0529664e-39
-380.99384 -459.35046 12.991593 7.0529664e-39
-341.8075 -454.96982 13.632559 7.0529664e-39
-231.68974 -456.60712 44.798065 7.0529664e-39
-141.81538 -454.67496 41.670696 7.0529664e-39
-98.703407 -462.24033 24.773602 7.0529664e-39
-87.737961 -487.25674 25.947001 7.0529664e-39
-15.764777 -467.24017 4.4040442 7.0529664e-39
0.25870001 -493.99991 0 7.0529664e-39
760.45093 -470.36838 9.1029091 7.0529664e-39
766.99872 -472.66724 5.2531667 7.0529664e-39
843.62274 -480.81152 7.6917462 7.0529664e-39
883.22461 -483.41507 6.3009429 7.0529664e-39
920.20807 -473.99234 11.710562 7.0529664e-39
-2524.6433 -416.13785 19.8337 7.0529664e-39
-2514.3618 -437.71313 20.24161 7.0529664e-39
-322.75436 -448.24905 14.169624 7.0529664e-39
-291.68106 -445.69421 12.163249 7.0529664e-39
-246.69049 -441.70267 12.001493 7.0529664e-39
-201.94414 -438.94528 11.258573 7.0529664e-39
-156.67899 -437.51245 13.102892 7.052965e-39
-114.73811 -436.5058 8.9476461 7.0529664e-39
-67.413269 -434.54337 3.8552146 7.0529664e-39
-34.07555 -441.7182 2.7890887 7.0529664e-39
-2531.0945 -403.15051 0 7.0529664e-39
-1503.7446 -235.67831 16.579777 7.0529664e-39
-1468.8499 -218.46346 11.510822 7.0529664e-39
-1419.5172 -200.71808 12.506838 7.0529664e-39
-1377.7449 -185.16324 17.362658 7.0529664e-39
424.27628 -195.58736 17.327934 7.0526063e-39
450.92209 -220.8069 43.926498 7.0529664e-39
-1361.3606 -177.85547 8.0281 7.0529664e-39
-1323.9288 -163.46196 8.2395878 7.0529664e-39
-1280.568 -144.2066 9.3923006 7.0529664e-39
429.82172 -167.90704 18.570105 7.0529664e-39
462.15121 -155.21284 19.439339 7.0529664e-39
519.30017 -150.62343 12.37567 7.0529664e-39
547.54279 -138.28 14.002304 7.0529664e-39
-1234.1882 -122.78418 10.862178 7.0529664e-39
-1186.3004 -101.27883 10.374214 7.0529664e-39
-1156.248 -90.998703 20.244801 7.0529664e-39
-111.27721 -125.5551 8.7924004 7.0529664e-39
513.57294 -100.01703 12.142158 7.0529664e-39
556.42969 -124.76414 13.519783 7.0529664e-39
586.57104 -131.29184 24.512068 7.0529664e-39
-1277.7997 -75.020103 0 7.0529664e-39
-1147.9136 -81.304924 9.4386692 7.0529664e-39
-1091.7428 -62.027527 10.195686 7.0529664e-39
-1056.1289 -48.867519 8.2259111 7.0529664e-39
489.14288 -73.188774 17.126526 7.0529664e-39
503.33182 -71.086098 21.578291 7.0529664e-39
582.41656 -68.871437 7.6774998 7.0529664e-39
587.16803 -62.391781 15.170577 7.0529664e-39
-1150.6898 -6.177443 0 7.0529664e-39
-1054.2904 -38.965843 12.657356 7.0529664e-39
-1012.4355 -23.861637 6.5446482 7.0529664e-39
103.9133 -27.882401 9.4127998 7.0529664e-39
398.12714 -5.5175209 6.2456975 7.0529664e-39
429.90201 -15.464877 7.6155009 7.0529664e-39
467.68805 -5.9776144 36.041649 7.0529664e-39
512.79114 -27.564922 19.27742 7.0529664e-39
-1135.618 30.732885 0 7.0529664e-39
-967.72675 10.8013 0 7.0529664e-39
-1.231836 43.161423 0.37523279 7.0529664e-39
1.4001642 4.5328169 0.25229156 7.0529664e-39
56.428581 32.979881 4.8720989 7.0529664e-39
382.26013 32.167118 6.3744969 7.0529664e-39
434.56613 18.979321 19.806816 7.0529664e-39
-1142.5294 64.868629 0 7.0529664e-39
-926.43018 61.941025 0 7.0529664e-39
-2.730624 46.71315 0.228972 7.0529664e-39
42.617626 56.297752 2.7188194 7.0529664e-39
50.216728 52.552681 5.6981258 7.0529664e-39
401.59644 83.076141 4.8835044 7.0529664e-39
415.02277 64.676323 19.247749 7.0529664e-39
-1203.5702 133.93649 0 7.0529664e-39
-1154.4042 109.3718 0 7.0529664e-39
-909.40503 105.46185 0 7.0529664e-39
88.012436 127.4814 2.7041059 7.0529664e-39
90.3097 127.1721 2.7226 7.0529664e-39
386.29938 114.43174 15.774742 7.0529664e-39
426.87781 119.92268 18.197021 7.052965e-39
-1215.7635 165.6743 0 7.0529664e-39
-1206.6948 162.12831 0 7.0529664e-39
-907.39795 168.41414 0 7.0529664e-39
-31.378767 139.9213 2.0826333 7.0529664e-39
372.55103 136.10478 14.594971 7.0529664e-39
-1218.5059 213.10159 0 7.0529664e-39
-1204.1948 195.58311 0 7.0529664e-39
-49.489799 219.0116 35.565044 7.0529664e-39
-43.530701 215.23773 34.780602 7.0529664e-39
-1203.451 252.05763 0 7.0529664e-39
-990.75714 244.95921 17.81455 7.0529664e-39
-980.04437 241.23502 10.67738 7.0529664e-39
-925.66974 231.32465 0 7.0529664e-39
-91.51329 241.19553 8.9215603 7.0529664e-39
-75.808807 240.43974 14.303605 7.0529664e-39
-30.673662 245.6312 5.8601909 7.0529664e-39
-1220.8427 286.81598 0 7.0529664e-39
-1212.8516 281.05228 0 7.0529664e-39
-967.60559 307.68469 0 7.0529664e-39
-78.543678 314.53217 16.994228 7.0529664e-39
-1260.9771 343.7818 0 7.0529664e-39
-1235.3173 336.45544 0 7.0529664e-39
-957.63348 316.2431 0 7.0529664e-39
-95.963562 341.4754 2.9064002 7.0529664e-39
-77.351555 319.34607 14.624995 7.0529664e-39
-1290.1125 383.11661 0 7.0529664e-39
-1005.2675 399.27521 0 7.0529664e-39
216.08934 380.96848 38.319477 7.0529664e-39
234.99611 392.15439 39.998688 7.0529664e-39
-997.73267 408.18225 0 7.0529664e-39
-1334.175 475.54517 0 7.0529664e-39
-1044.8146 488.90198 0 7.0529664e-39
-1039.4053 497.88763 0 7.0529664e-39
352.06891 516.5191 32.762299 7.0529664e-39
-1624.0398 560.36975 0 7.0529664e-39
-1589.9575 569.0528 0 7.0529664e-39
-1564.5465 580.4176 0 7.0529664e-39
-1506.8094 575.77502 17.327555 7.0529664e-39
-1092.0237 581.78333 0 7.0529664e-39
-136.4019 569.90369 0 7.0529664e-39
379.20935 567.44092 35.767872 7.0529664e-39
-1729.1566 613.36108 32.025169 7.0529664e-39
-1709.3837 600.29279 31.6238 7.0529664e-39
-1574.705 589.69849 0 7.0529664e-39
-1496.3616 612.97296 16.913702 7.0529664e-39
-1471.3981 626.44678 22.332102 7.0529664e-39
-1087.9908 591.44415 0 7.0529664e-39
-1078.6761 595.21558 0 7.0529664e-39
-341.76944 613.55658 15.208742 7.0529664e-39
-163.94614 627.77271 3.6280119 7.0529664e-39
402.5192 590.95691 37.4725 7.0529664e-39
408.05899 596.84851 37.891201 7.0529664e-39
-1600.3591 651.45197 30.160244 7.0529664e-39
-1546.429 667.47778 0 7.0529664e-39
-1510.9153 661.72577 0 7.0529664e-39
-1457.1902 647.77435 25.496506 7.0529664e-39
-1435.9199 650.80603 19.28141 7.0529664e-39
-1131.019 670.1731 0 7.0529664e-39
-154.62978 632.83136 8.3387537 7.0529664e-39
-1549.7916 680.21552 0 7.0529664e-39
-1493.3367 679.50629 0 7.0529664e-39
-1464.2894 704.43732 23.972895 7.0529664e-39
-1129.2368 683.51831 0 7.0529664e-39
-1122.5345 682.04443 0 7.0529664e-39
-1493.4843 749.26013 21.209436 7.0529664e-39
-1462.0985 747.36945 4.0913429 7.0529664e-39
-1439.0808 759.06219 0 7.0529664e-39
-1174.6205 756.58459 0 7.0529664e-39
-1167.9712 763.71637 0 7.0529664e-39
-1503.2766 786.7818 29.61673 7.0529664e-39
-1469.8091 769.37781 0 7.0529664e-39
-1170.0769 774.16339 0 7.0529664e-39
-1164.9087 769.28314 0 7.0529664e-39
-1516.9834 828.21063 26.407675 7.0529664e-39
-1217.9402 847.85852 0 7.0529664e-39
-1212.917 852.13623 0 7.0529664e-39
-1586.7321 880.6264 31.6761 7.0529664e-39
-1541.8506 866.10156 19.700592 7.0529664e-39
-1502.8094 870.81885 16.895868 7.0529664e-39
-1205.6445 863.52631 0 7.0529664e-39
-1504.6625 912.64911 30.717981 7.0529664e-39
-1464.861 917.12598 0 7.0529664e-39
-1262.8153 939.5603 0 7.0529664e-39
-1258.5129 941.14587 0 7.0529664e-39
-1789.3344 985.32233 35.6553 7.0529664e-39
-1250.5651 953.21191 0 7.0529664e-39
-1657.1016 1031.7236 34.072868 7.0529664e-39
-1302.4658 1031.5806 0 7.0529664e-39
-1671.2294 1068.6595 34.625568 7.0529664e-39
-1654.6943 1062.8687 34.328899 7.0529664e-39
-1292.2961 1041.4916 0 7.0529664e-39
-1666.7076 1114.5002 0 7.0529664e-39
-1646.2988 1090.6497 22.909201 7.0529664e-39
-1344.4731 1122.5608 0 7.0529664e-39
-1717.562 1148.0664 36.061024 7.0529664e-39
-1690.0403 1151.1926 22.089384 7.0529664e-39
-1662.8682 1142.1458 0 7.0529664e-39
-1582.3142 1147.2042 22.682302 7.0529664e-39
-1524.1731 1166.0225 33.496967 7.0529664e-39
-1333.459 1134.057 0 7.0529664e-39
-1692.1365 1186.5156 36.07412 7.0529664e-39
-1603.5851 1173.7307 0 7.0529664e-39
-1546.653 1208.8075 0 7.0529664e-39
-486.00861 1180.8999 0 7.0529664e-39
-1681.9893 1227.38 36.345612 7.0529664e-39
-1643.8531 1247.5398 36.02177 7.0529664e-39
-1618.8243 1258.8596 35.794899 7.0529664e-39
-1495.5411 1234.7513 0 7.0529664e-39
-1451.3115 1257.0155 0 7.0529664e-39
-1382.6587 1224.4171 0 7.0529664e-39
-1603.1261 1275.9713 35.764748 7.0529664e-39
-1610.9136 1325.9291 36.418785 7.0529664e-39
-1472.8462 1335.9805 0 7.0529664e-39
-1427.323 1332.7968 0 7.0529664e-39
-1621.3671 1377.473 37.135803 7.0529664e-39
-1618.2568 1357.4015 36.868198 7.0529664e-39
-1481.1244 1358.3164 0 7.0529664e-39
-1599.6997 1406.6211 37.18301 7.0529664e-39
-1552.345 1428.3303 36.821896 7.0529664e-39
-1510.5498 1435.6106 7.3300204 7.0529664e-39
-1475.3665 1434.3135 0 7.0529664e-39
-1506.8438 1453.2401 33.739521 7.0529664e-39
-1473.8345 1451.3794 0 7.0529664e-39
-1517.0059 1509.7682 20.710178 7.0529664e-39
-1539.3958 1557.6719 14.356788 7.0529664e-39
-1527.5409 1532.3474 37.766998 7.0529664e-39
-1558.3296 1599.2146 24.33955 7.0529664e-39
-1582.8867 1653.2338 20.003368 7.0529664e-39
-1570.6355 1626.2544 13.164934 7.0529664e-39
-320.0217 1655.0864 29.424734 7.0529664e-39
-313.13818 1654.8772 29.3986 7.0529664e-39
-1599.0746 1690.7943 20.301514 7.0529664e-39
-683.41577 1698.1897 31.952467 7.0529664e-39
-671.45587 1703.1387 31.955366 7.0529664e-39
-327.56906 1677.5358 29.8349 7.0529664e-39
-1623.5825 1747.4905 20.79455 7.0529664e-39
-1613.4219 1724.8837 16.450642 7.0529664e-39
-1636.9095 1776.9788 26.361862 7.0529664e-39
-1665.9551 1841.1635 0 7.0529664e-39
-1656.6885 1820.058 21.510101 7.0529664e-39
-780.23834 1836.3274 20.47167 7.0529664e-39
-764.42438 1844.573 34.852501 7.0529664e-39
-383.15051 1833.8539 32.701462 7.0529664e-39
-1678.6582 1870.8451 21.974762 7.0529664e-39
-766.59558 1846.1669 0 7.0529664e-39
-760.29529 1847.3595 34.8699 7.0529664e-39
-1698.1669 1916.7522 22.333267 7.0529664e-39
-1717.353 1958.7523 0 7.0529664e-39
-1735.1047 1997.6777 0 7.0529664e-39
-1760.995 2054.5881 0 7.0529664e-39
-1754.1447 2039.3813 0 7.0529664e-39
-1778.8202 2091.6304 0 7.0529664e-39
-945.42969 2110.5691 40.367401 7.0529664e-39
-939.20038 2114.4426 40.384899 7.0529664e-39
-1805.05 2149.6602 0 7.0529664e-39
-1795.7427 2128.7397 0 7.0529664e-39
-947.05597 2132.1279 0 7.0529664e-39
-934.1673 2133.5027 18.014767 7.0529664e-39
-1825.402 2195.2056 0 7.0529664e-39
-1840.7887 2227.9121 0 7.0529664e-39
-1859.1937 2268.0205 0 7.0529664e-39
-1877.8054 2309.4141 0 7.0529664e-39
-1902.3391 2362.2424 0 7.0529664e-39
-1924.3105 2409.1401 0 7.0529664e-39
-1945.2146 2454.7012 0 7.0529664e-39
-1961.9282 2491.8354 0 7.0529664e-39
-1989.2095 2551.1299 0 7.0529664e-39
-2008.1317 2592.1499 0 7.0529664e-39
-2033.2845 2646.0012 0 7.0529664e-39
-2022.3271 2624.1499 0 7.0529664e-39
-2047.4568 2677.9761 0 7.0529664e-39
-2063.7888 2712.0547 0 7.0529664e-39
-2089.6216 2769.0132 0 7.0529664e-39
-2109.7048 2813.9697 0 7.0529664e-39
-2130.1729 2860.468 0 7.0529664e-39
-2153.6338 2911.5483 0 7.0529664e-39
-2171.6345 2949.8428 0 7.0529664e-39
-2196.0051 3002.6592 0 7.0529664e-39
-2214.7773 3042.8091 0 7.0529664e-39
-2258.1978 3139.145 0 7.0529664e-39
-2246.7393 3112.8899 0 7.0529664e-39
-2271.9102 3168.6946 0 7.0529664e-39
-2300.8132 3230.3892 0 7.0529664e-39
-2587.4287 4986.6909 0 7.0529664e-39
-2561.7483 4993.1943 0 7.0529664e-39
-2659.3564 5018.4189 0 7.0529664e-39
-2650.5847 5031.5376 0 7.0529664e-39
-2539.8733 4999.8613 0 7.0529664e-39
-2501.813 5016.5415 0 7.0529664e-39
-2466.5151 5032.5635 0 7.0529664e-39
-2451.7527 5052.1846 0 7.0529664e-39
-4977.6543 10792.408 0 7.0529664e-39
-4953.5713 10804.588 0 7.0529664e-39
892.24792 -4417.0981 78.657997 7.0529664e-39
901.95258 -4425.3311 78.832497 7.0529664e-39
579.7417 -4374.0757 77.017502 7.0529664e-39
595.07422 -4370.6621 76.994232 7.0529664e-39
669.99579 -4368.2441 77.139603 7.0529664e-39
684.80139 -4373.0288 77.261803 7.0529664e-39
792.55225 -4365.4619 77.445053 7.0529664e-39
830.28833 -4375.2207 77.733032 7.0529664e-39
874.15601 -4399.9844 78.303131 7.0529664e-39
613.94244 -4358.7935 76.834198 7.0529664e-39
647.09601 -4345.4023 76.685875 7.0529664e-39
746.52039 -4362.7061 77.258324 7.0529664e-39
781.97693 -4363.4502 77.378136 7.0529664e-39
490.4093 -3068.5862 54.2421 7.0529664e-39
503.45526 -3068.8315 54.282803 7.0529664e-39
292.45721 -2657.5491 46.667702 7.0529664e-39
303.82864 -2645.1946 46.475777 7.0529664e-39
329.14258 -2644.03 46.508175 7.0529664e-39
1184.9418 -2450.0522 47.50547 7.0529664e-39
-2306.9126 -1910.1246 52.279667 7.0529664e-39
-2294.9316 -1934.5665 52.392101 7.0529664e-39
-2327.0854 -1869.2941 52.101986 7.0529664e-39
-2309.0735 -1817.0789 51.288277 7.0529664e-39
-2375.02 -1759.1302 51.589336 7.0529664e-39
-2314.9797 -1792.4506 51.105003 7.0529664e-39
-2395.4905 -1728.83 51.566048 7.0529664e-39
-2383.6545 -1754.1729 51.6591 7.0529664e-39
-2413.0518 -1687.2155 51.395126 7.0529664e-39
-191.22592 -1491.9238 78.828438 7.0529664e-39
-2185.1912 -1450.6029 45.782028 7.0529664e-39
-2482.0337 -1430.1165 50.001099 7.0529664e-39
-2210.3198 -1401.6302 45.684566 7.0529664e-39
-2197.6387 -1425.4647 45.723137 7.0529664e-39
-2564.2456 -1351.4014 50.594501 7.0529664e-39
-2216.6597 -1380.6007 45.583183 7.0529664e-39
-2579.614 -1328.5278 50.648613 7.0529664e-39
-2547.2734 -1349.2781 50.3153 7.0529664e-39
1070.3881 -1322.2043 89.154305 7.0529664e-39
-2600.1357 -1282.0312 50.603256 7.0529664e-39
-2393.9194 -1283.0699 47.409451 7.0529664e-39
668.93848 -1275.2216 75.468399 7.0529664e-39
1053.3605 -1283.9048 87.034706 7.0529664e-39
-2624.4453 -1225.2821 50.556717 7.0529664e-39
-2606.9976 -1247.3907 50.446198 7.0529664e-39
669.46582 -1254.4119 74.517685 7.0529664e-39
687.30316 -1241.6626 74.378113 7.0529664e-39
-2641.4961 -1189.6321 50.56834 7.0529664e-39
-2663.3076 -1143.4933 50.592346 7.0529664e-39
-2653.6946 -1165.9955 50.594501 7.0529664e-39
958.94836 -1139.2758 78.043388 7.0529664e-39
-2667.0742 -1122.2303 50.507301 7.0529664e-39
943.5423 -1081.2219 75.206802 7.0529664e-39
955.05511 -1105.0789 76.546577 7.0529664e-39
-2709.2158 -1040.6932 50.658501 7.0529664e-39
-2650.0525 -1066.3889 49.8615 7.0529664e-39
930.34534 -1053.4668 73.657646 7.0529664e-39
-2719.5271 -1010.196 50.639118 7.0529664e-39
912.24915 -1013.9894 71.482224 7.0529664e-39
-2751.4336 -952.23035 50.821434 7.0529664e-39
-2727.3936 -969.38885 50.524715 7.0529664e-39
890.21918 -965.38892 68.821793 7.0529664e-39
-2763.7683 -923.48462 50.864079 7.0529664e-39
867.177 -917.00183 66.143936 7.0529664e-39
-2792.5508 -858.56726 50.995899 7.0529664e-39
-2780.9854 -883.7746 50.934853 7.0529664e-39
845.97961 -873.24023 63.719036 7.0529664e-39
857.74652 -897.26691 65.053596 7.0529664e-39
-2805.2637 -831.901 51.074474 7.0529664e-39
828.58478 -833.32385 61.587788 7.0529664e-39
-2837.1423 -772.96179 51.327499 7.0529664e-39
-2824.0845 -789.15991 51.183578 7.0529664e-39
803.4845 -777.1922 58.584881 7.0529664e-39
813.02478 -799.73657 59.767651 7.0529664e-39
-2844.063 -755.67706 51.365902 7.0529664e-39
-2813.7158 -728.7373 50.73415 7.0529664e-39
427.50574 -747.07947 65.204765 7.0529664e-39
786.13409 -741.12299 56.622272 7.0529664e-39
-2869.8835 -683.0368 51.493324 7.0529664e-39
-2813.0315 -702.46619 50.609791 7.0529664e-39
430.77972 -703.58643 72.185295 7.0529664e-39
454.27295 -692.65546 72.470001 7.0529664e-39
759.58411 -682.56555 65.448105 7.0529664e-39
770.8996 -708.10992 54.858559 7.0529664e-39
-2881.2959 -630.85858 51.4846 7.0529664e-39
-2869.1414 -652.48926 51.360249 7.0529664e-39
745.64294 -651.32251 70.05542 7.0529664e-39
-2892.6487 -605.73615 51.587147 7.0529664e-39
-2878.3706 -616.01837 51.379902 7.0529664e-39
-1456.037 -593.02899 82.394241 7.0529664e-39
716.75195 -593.00555 63.268013 7.0529664e-39
727.47546 -614.24054 67.719177 7.0529664e-39
-2929.1487 -551.08282 52.02562 7.0529664e-39
-2913.9253 -570.1676 51.827831 7.0529664e-39
-1448.2914 -567.94324 81.530693 7.0529664e-39
-126.9731 -542.20398 48.7201 7.0529664e-39
712.15198 -570.17224 63.229984 7.0529664e-39
741.70239 -555.93341 64.849205 7.0529664e-39
776.06866 -544.98816 67.014244 7.0529664e-39
-161.52617 -529.58807 67.982803 7.0529664e-39
790.52509 -517.61365 66.11969 7.0529664e-39
882.47949 -496.29974 88.5793 7.0529664e-39
-362.96249 -475.20547 52.315224 7.0529664e-39
-337.80615 -470.35312 53.774666 7.0529664e-39
-305.41849 -470.10852 65.549522 7.0529664e-39
-232.6998 -461.79181 63.493923 7.0529664e-39
-169.34853 -459.39624 60.12006 7.0529664e-39
762.05823 -469.84546 60.383377 7.0529664e-39
784.57709 -481.39108 64.207825 7.0529664e-39
825.80731 -483.54504 65.947197 7.0529664e-39
886.99274 -490.79166 69.877632 7.0529664e-39
919.04047 -479.19592 59.864468 7.0529664e-39
946.36908 -467.51929 55.319099 7.0529664e-39
425.19824 -195.91042 67.336433 7.0529664e-39
452.88348 -221.0815 70.8629 7.0529664e-39
428.54837 -166.88499 63.741707 7.0529664e-39
462.55923 -154.22838 69.795082 7.0529664e-39
520.08337 -150.46933 66.535309 7.0529664e-39
547.0293 -138.75591 66.664803 7.0529664e-39
511.4631 -95.019333 52.837727 7.0529664e-39
565.29675 -119.22271 63.114548 7.0529664e-39
587.08966 -131.40186 61.112499 7.0529664e-39
-3152.0864 -52.268398 55.027401 7.0529664e-39
-3148.4492 -59.903152 54.966351 7.0529664e-39
510.62018 -71.764389 69.704811 7.0529664e-39
580.67847 -69.966194 71.817604 7.0529664e-39
588.6474 -61.508541 62.662754 7.0529664e-39
-3156.8186 -35.124474 55.105976 7.0529664e-39
-3140.4871 -12.83314 54.81802 7.0529664e-39
494.28223 -2.3005002 60.690899 7.0529664e-39
513.44977 -24.923685 66.42453 7.0526063e-39
-3195.2322 42.385601 55.777901 7.0529664e-39
-3167.3757 29.463699 55.289223 7.0529664e-39
-3144.4961 11.894234 54.887833 7.0529664e-39
448.64743 33.845428 61.772072 7.0529664e-39
475.76654 19.375214 67.159477 7.0529664e-39
495.8194 0.3461 78.530098 7.0529664e-39
-3197.1611 47.434299 55.812801 7.0529664e-39
-3184.7991 67.145683 55.603359 7.0529664e-39
-2737.4939 77.065971 47.802128 7.0529664e-39
441.38571 72.551102 61.944027 7.0529664e-39
454.0799 53.730217 68.120667 7.0529664e-39
-2750.5459 112.03942 48.050854 7.0529664e-39
-2741.5361 96.857635 47.883602 7.0529664e-39
378.66263 126.01058 56.006077 6.9607708e-39
424.75003 108.47729 61.582615 7.0529664e-39
-3251.3015 161.6871 56.822113 7.0529664e-39
371.68292 137.05479 58.52494 7.0529664e-39
-3266.6169 195.90347 57.121731 7.0529664e-39
-2792.9995 203.6429 48.881687 7.0529664e-39
-2789.0671 190.6286 48.796902 7.0529664e-39
-2808.1758 229.88895 49.180901 7.0529664e-39
-993.39191 238.39371 76.748245 7.0529664e-39
-988.52649 251.8788 75.335899 7.0529664e-39
-3312.2488 294.71301 58.04422 7.0529664e-39
-2849.2178 310.27692 50.027351 7.0529664e-39
-3331.854 323.16891 58.430698 7.0529664e-39
-3312.124 339.52551 58.116501 7.0529664e-39
-2856.7085 336.03766 50.20808 7.0529664e-39
-100.2598 358.60681 58.9758 7.0529664e-39
213.55785 381.74756 69.283997 7.0529664e-39
234.9427 391.16425 72.272736 7.0529664e-39
-3379.1978 440.68414 59.483635 7.0529664e-39
-3369.8672 420.33951 59.2771 7.0529664e-39
-2936.9121 425.30869 51.798698 7.0529664e-39
-2892.9546 435.45502 51.065735 7.0529664e-39
-3390.6931 466.49203 59.742485 7.0529664e-39
-2932.2786 481.44748 51.868561 7.0529664e-39
-2908.9775 456.31955 51.39735 7.0529664e-39
-2917.3838 515.30005 51.711498 7.0529664e-39
349.08478 526.66052 58.988705 7.0529664e-39
368.32791 531.31415 56.564079 7.0529664e-39
-3444.6472 582.00012 60.978699 7.0529664e-39
-3020.8872 579.81348 53.692352 7.0529664e-39
-2840.3071 568.00262 50.559628 7.0529664e-39
383.48773 554.63373 67.125778 7.0529664e-39
-3459.6873 623.7428 61.362701 7.0529664e-39
-2997.1567 629.41498 53.456699 7.0529664e-39
-2841.5796 586.91132 50.6469 7.0529664e-39
-341.09204 614.36652 73.853508 7.0529664e-39
-159.59813 627.96771 79.55632 7.0529664e-39
381.37625 597.56146 67.414497 7.0529664e-39
-3473.1033 643.71436 61.655842 7.0529664e-39
-3020.3516 666.55737 53.988998 7.0529664e-39
-3000.0583 644.58844 53.56144 7.0529664e-39
-1453.0618 652.35101 83.475861 7.0529664e-39
-151.22488 633.21063 79.93692 7.0529664e-39
-3031.9106 681.33148 54.2421 7.0529664e-39
-1459.6313 681.25946 84.41787 7.0529664e-39
-3553.3135 809.90222 63.613998 7.0529664e-39
-3068.6514 792.19409 55.319748 7.0529664e-39
-1518.1621 787.27716 89.625351 7.0529664e-39
-3562.2668 835.93134 63.868843 7.0529664e-39
-3548.9712 815.43091 63.561699 7.0529664e-39
-3572.3916 855.67731 64.120102 7.0529664e-39
-3119.4414 892.13123 56.633049 7.0529664e-39
-3133.8403 924.40942 57.031975 7.0529664e-39
-3623.4753 968.7843 65.469803 7.0529664e-39
-3132.3149 949.28223 57.130447 7.0529664e-39
681.2807 973.69287 62.2798 7.0529664e-39
-3639.5254 1008.4905 65.922104 7.0529664e-39
-3176.4089 1023.5099 58.251751 7.0529664e-39
-374.61981 1031.5692 57.51725 7.0529664e-39
667.8963 1003.964 63.195648 7.0529664e-39
-408.49411 1069.0383 59.977001 7.0529664e-39
-397.40887 1062.2886 59.440552 7.0529664e-39
-3704.5957 1149.348 67.704887 7.0529664e-39
-3716.6047 1178.2639 68.055649 7.0529664e-39
-464.71552 1199.3496 67.408699 7.0529664e-39
-3747.0596 1239.9606 68.893356 7.0529664e-39
-3765.5408 1275.7609 69.397743 7.0529664e-39
-3787.21 1316.1373 69.984177 7.0529664e-39
-3812.5706 1379.2085 70.769524 7.0529664e-39
-3831.575 1420.3832 71.328003 7.0529664e-39
-3822.6357 1404.184 71.083702 7.0529664e-39
-1721.5479 1965.8479 45.6119 7.0529664e-39
-1709.8759 1940.8387 45.149399 7.0529664e-39
-1740.8728 2007.1423 46.376869 7.0529664e-39
-1764.043 2056.6987 47.295998 7.0529664e-39
-1753.6982 2035.2671 46.8946 7.0529664e-39
-1775.8744 2084.0737 47.7934 7.0529664e-39
-1805.1555 2149.0144 48.988899 7.0529664e-39
-1796.2067 2127.792 48.60495 7.0529664e-39
-1819.6082 2180.3779 49.570633 7.0529664e-39
-1849.678 2244.637 50.7691 7.0529664e-39
-1839.014 2221.0234 50.332748 7.0529664e-39
-1866.5903 2283.7876 51.4846 7.0529664e-39
-1884.5051 2320.1343 52.17395 7.0529664e-39
-1902.1013 2360.9829 52.921501 7.0529664e-39
-1925.3196 2409.2285 53.831902 7.0529664e-39
-1950.2444 2464.1392 54.852898 7.0529664e-39
-1968.45 2503.2649 55.585899 7.0529664e-39
-1984.9767 2541.1255 56.284 7.0529664e-39
-2004.0378 2582.6733 57.06065 7.0529664e-39
-2016.6649 2610.2009 57.5755 7.0529664e-39
-1184.634 2627.3398 50.306549 7.0529664e-39
-2044.6151 2669.4316 58.692451 7.0529664e-39
-2071.7354 2725.4575 59.757 7.0529664e-39
-2061.5967 2704.2737 59.355598 7.0529664e-39
-2087.437 2760.6035 60.411499 7.0529664e-39
-2107.3379 2805.7017 61.249199 7.0529664e-39
-2119.9333 2836.8689 61.816399 7.0529664e-39
-2150.7373 2901.8101 63.046799 7.0529664e-39
-2172.6968 2950.2285 63.95435 7.0529664e-39
-2193.4937 2992.6431 64.7659 7.0529664e-39
-2218.8618 3048.4033 65.813004 7.0529664e-39
-2204.7778 3019.0757 65.254501 7.0529664e-39
-2236.5608 3087.4463 66.546005 7.0529664e-39
-2273.7449 3165.4165 68.029503 7.0529664e-39
-2300.9575 3224.6328 69.1464 7.0529664e-39
-2289.7229 3198.2512 68.657799 7.0529664e-39
-2321.9988 3271.0166 70.019043 7.0529664e-39
-2342.8508 3316.2852 70.874199 7.0529664e-39
-2355.4834 3345.3044 71.415199 7.0529664e-39
-2388.5146 3414.9568 72.7416 7.0529664e-39
-2372.0508 3380.1006 72.0784 7.0529664e-39
-2420.5608 3484.0281 74.050598 7.0529664e-39
-1809.4047 3986.9607 76.424103 7.0529664e-39
1158.2574 -1511.9741 99.817772 7.0529664e-39
1132.9375 -1457.6194 96.75177 7.0529664e-39
1115.1399 -1418.3998 94.557999 7.0529664e-39
1095.3608 -1375.7903 92.163635 7.0529664e-39
1082.2239 -1347.941 90.593498 7.0529664e-39
804.29626 -777.59442 97.8759 7.0529664e-39
814.36115 -798.6712 99.79332 7.0529664e-39
945.68469 -467.59186 92.297897 7.0529664e-39
552.98975 -135.72455 90.184502 7.0529664e-39
565.89429 -120.46471 91.650421 7.0529664e-39
588.16272 -130.60794 95.425003 7.0529664e-39
582.7616 -78.605125 93.137177 7.0529664e-39
588.56512 -64.945862 93.790276 7.0529664e-39
338.75586 509.73895 96.937241 7.0529664e-39
-685.93134 1699.2574 96.036507 7.0529664e-39
-669.56555 1703.6292 95.931801 7.0529664e-39
-380.38034 1833.2668 98.125916 7.0529664e-39
-346.07318 1838.1237 98.025238 7.0529664e-39
-332.46161 1847.7517 98.391602 7.0529664e-39
-2255.9751 4760.7207 91.956749 7.0529664e-39
-2240.1694 4767.0742 91.939255 7.0529664e-39
-2234.4243 4783.0176 92.148697 7.0529664e-39
