# .PCD v0.7 - Point Cloud Data file format
VERSION 0.7
FIELDS x y z rgb
SIZE 4 4 4 4
TYPE F F F F
COUNT 1 1 1 1
WIDTH 1066
HEIGHT 1
VIEWPOINT 0 0 0 1 0 0 0
POINTS 1066
DATA ascii
-2218.8618 3048.4033 65.813004 7.0529664e-39
-2204.7778 3019.0757 65.254501 7.0529664e-39
-2236.5608 3087.4463 66.546005 7.0529664e-39
-2273.7449 3165.4165 68.029503 7.0529664e-39
-2300.9575 3224.6328 69.1464 7.0529664e-39
-2289.7229 3198.2512 68.657799 7.0529664e-39
-2321.9988 3271.0166 70.019043 7.0529664e-39
-2342.8508 3316.2852 70.874199 7.0529664e-39
-2355.4834 3345.3044 71.415199 7.0529664e-39
-2388.5146 3414.9568 72.7416 7.0529664e-39
-2372.0508 3380.1006 72.0784 7.0529664e-39
-2420.5608 3484.0281 74.050598 7.0529664e-39
-1809.4047 3986.9607 76.424103 7.0529664e-39
311.44199 -7369.2983 128.7464 7.0529664e-39
339.2952 -7365.5552 128.70279 7.0529664e-39
387.84872 -7359.6519 128.64166 7.0529664e-39
426.41879 -7358.1929 128.65331 7.0529664e-39
450.1644 -7360.123 128.7115 7.0529664e-39
-274.92297 -2253.6768 118.98579 7.0529664e-39
-229.92986 -2254.5271 118.76773 7.0529664e-39
1132.8287 -2275.6321 133.22121 7.0529664e-39
-251.87402 -2243.895 118.3374 7.0529664e-39
-60.71064 -2165.7109 113.54578 7.0529664e-39
-43.612301 -2172.5801 113.883 7.0529664e-39
1349.6923 -1988.9974 125.9726 7.0529664e-39
1342.8993 -1968.2532 124.87355 7.0529664e-39
1318.0394 -1909.4883 121.59737 7.0529664e-39
1298.7361 -1850.6595 118.4886 7.0529664e-39
1316.9889 -1887.8593 120.6344 7.0529664e-39
910.78284 -1807.7466 106.08495 7.0529664e-39
1295.6383 -1839.4094 117.9129 7.0529664e-39
921.95337 -1787.8873 105.42425 7.0529664e-39
1247.2306 -1764.7904 113.255 7.0529664e-39
1234.7123 -1732.9543 111.51482 7.0529664e-39
1210.3583 -1676.9946 108.38778 7.0529664e-39
-1639.2317 -1638.6587 121.47176 7.0529664e-39
1209.3059 -1655.1348 107.42828 7.0529664e-39
1221.3151 -1649.9348 107.58179 7.0529664e-39
1196.1692 -1592.5798 104.38405 7.0529664e-39
1181.0295 -1559.1761 102.5087 7.0529664e-39
-190.80319 -1494.6094 131.82307 7.0529664e-39
1158.2574 -1511.9741 99.817772 7.0529664e-39
-2079.7964 -1461.8405 133.2299 7.0529664e-39
-1898.7704 -1443.5974 125.00446 7.0529664e-39
1132.9375 -1457.6194 96.75177 7.0529664e-39
-2118.0222 -1401.7124 133.1078 7.0529664e-39
-1905.6282 -1432.0321 124.92594 7.0529664e-39
1115.1399 -1418.3998 94.557999 7.0529664e-39
-2131.0017 -1375.7148 132.93333 7.0529664e-39
1095.3608 -1375.7903 92.163635 7.0529664e-39
-2163.1018 -1307.4423 132.4623 7.0529664e-39
-2150.603 -1332.9167 132.60185 7.0529664e-39
-1961.6953 -1333.1671 124.30371 7.0529664e-39
1082.2239 -1347.941 90.593498 7.0529664e-39
-2172.9414 -1282.0139 132.22391 7.0529664e-39
673.71448 -1279.4358 126.50655 7.0529664e-39
-2186.4099 -1252.0685 132.04362 7.0529664e-39
669.63574 -1256.2273 124.54557 7.0529664e-39
689.61578 -1242.8241 124.35385 7.0529664e-39
966.61212 -1127.7656 129.9492 7.0529664e-39
970.36328 -1106.9874 128.79242 7.0529664e-39
994.56628 -1099.1647 129.6877 7.0529664e-39
916.97144 -1017.5541 119.83915 7.0529664e-39
888.34906 -962.98584 114.62434 7.0529664e-39
900.26349 -988.33661 116.963 7.0529664e-39
869.86725 -921.99988 110.89946 7.0529664e-39
848.73712 -875.18439 106.66119 7.0529664e-39
857.13672 -893.6601 108.3346 7.0529664e-39
828.57825 -833.35333 102.81474 7.0529664e-39
804.29626 -777.59442 97.8759 7.0529664e-39
814.36115 -798.6712 99.79332 7.0529664e-39
425.19907 -737.23724 111.97858 7.0529664e-39
786.59052 -743.01642 113.68945 7.0529664e-39
431.16623 -701.14587 115.49145 7.0529664e-39
453.27957 -690.34277 117.74475 7.0529664e-39
756.80579 -679.52783 124.88563 7.0529664e-39
771.17017 -707.70746 100.87237 7.0529664e-39
747.48456 -655.43121 122.06738 7.0529664e-39
716.32861 -590.39966 113.97832 7.0529664e-39
725.06708 -610.09094 116.3504 7.0529664e-39
711.71985 -568.65125 111.85866 7.0529664e-39
742.16119 -554.32996 113.7465 7.0529664e-39
752.87708 -521.61108 112.46511 7.0529664e-39
782.84705 -505.76022 114.44174 7.0529664e-39
879.76624 -495.92389 124.0021 7.0529664e-39
761.60687 -465.55548 109.60114 7.0529664e-39
787.69043 -483.88327 113.50915 7.0529664e-39
823.99823 -482.8848 117.27082 7.0529664e-39
888.70947 -491.06476 124.67234 7.0529664e-39
924.11462 -476.84552 111.65977 7.0529664e-39
945.68469 -467.59186 92.297897 7.0529664e-39
552.98975 -135.72455 90.184502 7.0529664e-39
565.89429 -120.46471 91.650421 7.0529664e-39
588.16272 -130.60794 95.425003 7.0529664e-39
582.7616 -78.605125 93.137177 7.0529664e-39
588.56512 -64.945862 93.790276 7.0529664e-39
-990.9826 237.91557 125.13543 7.0529664e-39
-986.69531 251.18457 125.01762 7.0529664e-39
338.75586 509.73895 96.937241 7.0529664e-39
-340.2562 615.48145 111.39111 7.0529664e-39
-188.00792 620.71564 102.72528 7.0529664e-39
-170.85144 625.78766 102.74615 7.0529664e-39
-162.6655 631.25281 103.2467 7.0529664e-39
-1737.5769 984.14154 104.65447 7.0529664e-39
-1774.4214 1021.9881 107.3149 7.0529664e-39
-369.58502 1033.2649 134.74181 7.0529664e-39
-411.60492 1076.9481 100.86827 7.0529664e-39
-364.08969 1035.6191 134.78751 7.0529664e-39
-2256.0308 1109.7748 131.76451 7.0529664e-39
-2235.2358 1118.7122 130.9969 7.0529664e-39
-2195.6279 1118.8867 129.14767 7.0529664e-39
-407.28421 1083.5621 101.275 7.0529664e-39
-2175.2119 1142.1617 128.75954 7.0529664e-39
-2144.3555 1161.6853 127.81313 7.0529664e-39
-2122.3555 1171.7595 127.05428 7.0529664e-39
-2097.7051 1182.1327 126.19246 7.0529664e-39
-2045.6677 1205.1604 124.43167 7.0529664e-39
-2023.3466 1214.3077 123.6699 7.0529664e-39
-1914.5653 1211.8958 118.75027 7.0529664e-39
-2000.4355 1226.1503 122.96624 7.0529664e-39
-1975.76 1237.4659 122.17825 7.0529664e-39
-1903.2496 1226.9336 118.67552 7.0529664e-39
-1908.7025 1268.8004 120.11685 7.0529664e-39
-1867.9047 1287.0033 118.88112 7.0529664e-39
-1835.9203 1300.5686 117.91292 7.0529664e-39
-1812.5801 1311.4316 117.24998 7.0529664e-39
-1778.0632 1326.3777 116.25719 7.0529664e-39
-1739.5345 1343.5283 115.19143 7.0529664e-39
-1719.5569 1353.479 114.68553 7.0529664e-39
-1688.1683 1366.5969 113.83071 7.0529664e-39
-1644.4515 1386.4519 112.72688 7.0529664e-39
-1622.4811 1397.0327 112.2083 7.0529664e-39
-1597.7284 1400.4498 111.34766 7.0529664e-39
-1548.3583 1415.9786 109.96483 7.0529664e-39
-1526.9551 1438.9285 109.95786 7.0529664e-39
-1503.63 1454.176 109.62774 7.0529664e-39
-1513.3505 1512.0184 112.1141 7.0529664e-39
-1535.1987 1558.0681 114.63316 7.0529664e-39
-1526.3213 1539.6995 113.6214 7.0529664e-39
-1553.6089 1599.3131 116.8531 7.0529664e-39
-1578.9624 1656.3408 119.92785 7.0529664e-39
-1566.8757 1631.2771 118.54094 7.0529664e-39
-1592.9872 1690.0574 121.716 7.0529664e-39
-685.93134 1699.2574 96.036507 7.0529664e-39
-669.56555 1703.6292 95.931801 7.0529664e-39
-1620.0439 1751.3269 125.0306 7.0529664e-39
-1608.1084 1725.2695 123.60445 7.0529664e-39
-1631.9374 1779.7383 126.54833 7.0529664e-39
-778.28351 1795.9266 102.5785 7.0529664e-39
-1652.6176 1824.0587 128.99503 7.0529664e-39
-772.06891 1816.7792 103.45509 7.0529664e-39
-761.30774 1842.5082 104.48 7.0529664e-39
-380.38034 1833.2668 98.125916 7.0529664e-39
-346.07318 1838.1237 98.025238 7.0529664e-39
-1675.517 1872.9832 131.70346 7.0529664e-39
-1664.9089 1852.3168 130.52589 7.0529664e-39
-756.14771 1846.4318 104.5672 7.0529664e-39
-332.46161 1847.7517 98.391602 7.0529664e-39
-1690.8838 1911.2156 133.73581 7.0529664e-39
-1045.6094 2277.5073 131.3371 7.0529664e-39
-1010.381 2267.1082 130.08102 7.0529664e-39
-424.40353 2435.9094 129.58383 7.0529664e-39
-2255.9751 4760.7207 91.956749 7.0529664e-39
-2240.1694 4767.0742 91.939255 7.0529664e-39
-2234.4243 4783.0176 92.148697 7.0529664e-39
2563.5962 -8528.6846 155.44859 7.0529664e-39
2590.3103 -8515.0283 155.3555 7.0529664e-39
2634.2654 -8513.3945 155.55331 7.0529664e-39
2275.7373 -7902.5835 143.54602 7.0529664e-39
2312.3752 -7887.2637 143.4675 7.0529664e-39
2349.1157 -7877.4414 143.48495 7.0529664e-39
484.79926 -3075.7456 163.18353 7.0529664e-39
512.86328 -3063.0779 162.76485 7.0529664e-39
505.89819 -3059.1968 162.5031 7.0529664e-39
290.89899 -2660.4707 140.26041 7.0529664e-39
303.64679 -2643.9585 139.47534 7.0529664e-39
331.72522 -2644.2686 139.66722 7.0529664e-39
1194.9541 -2459.2683 143.29582 7.0529664e-39
-2113.6489 -2394.0925 167.37041 7.0529664e-39
-2098.1382 -2361.134 165.5386 7.0529664e-39
-2142.2527 -2299.3738 164.70128 7.0529664e-39
-2106.0671 -2323.1226 164.3349 7.0529664e-39
-2128.5608 -2274.2466 163.24892 7.0529664e-39
-2145.958 -2236.2317 162.42986 7.0529664e-39
-2140.0754 -2173.5837 159.86017 7.0529664e-39
-2212.8318 -2116.8452 160.4882 7.0529664e-39
-2190.5615 -2138.9761 160.45622 7.0529664e-39
-2220.8196 -2090.8052 159.85364 7.0529664e-39
-2253.415 -2026.8486 158.8396 7.0529664e-39
-2240.6807 -2051.0701 159.19945 7.0529664e-39
-2261.7854 -2005.8291 158.43404 7.0529664e-39
-2281.8809 -1959.7723 157.64113 7.0529664e-39
-2303.4255 -1912.9664 156.92065 7.0529664e-39
-2322.5344 -1871.552 156.32094 7.0529664e-39
-2324.561 -1840.4435 155.3855 7.0529664e-39
915.19025 -1806.6843 177.18759 7.0529664e-39
926.14746 -1788.3782 176.19986 7.0529664e-39
-2096.4141 -1635.7792 139.35756 7.0529664e-39
1211.3691 -1631.1179 177.75415 7.0529664e-39
1221.8882 -1653.7004 179.8895 7.0529664e-39
-2123.7725 -1575.528 138.5856 7.0529664e-39
-2106.1135 -1611.4111 138.97815 7.0529664e-39
1193.3418 -1594.2322 174.22433 7.0529664e-39
-2133.2937 -1552.9045 138.28732 7.0529664e-39
1180.0259 -1563.116 171.34821 7.0529664e-39
1153.0592 -1507.9094 166.07527 7.0529664e-39
-2311.489 -1462.3922 143.34821 7.0529664e-39
1132.7256 -1459.8168 161.65648 7.0529664e-39
-2536.2529 -1410.3354 152.0883 7.0529664e-39
-2492.2668 -1411.2054 150.0995 7.0529664e-39
-2333.4688 -1410.6932 142.90335 7.0529664e-39
1119.4905 -1417.2969 158.01335 7.0529664e-39
-2552.9202 -1371.046 151.8685 7.0529664e-39
-2346.363 -1388.1881 142.8772 7.0529664e-39
1099.0627 -1371.4242 153.76018 7.0529664e-39
-2574.241 -1327.6528 151.79753 7.0529664e-39
1072.4751 -1314.5242 148.42625 7.0529664e-39
1080.1703 -1330.0977 149.9079 7.0529664e-39
-2593.5073 -1283.6542 151.65913 7.0529664e-39
1055.9745 -1279.865 145.16661 7.0529664e-39
-2617.8743 -1234.114 151.67833 7.0529664e-39
-2607.7056 -1252.0203 151.59979 7.0529664e-39
668.36542 -1253.0564 174.37474 7.0529664e-39
688.79388 -1239.4224 174.10777 7.0529664e-39
1029.4517 -1222.0884 139.79779 7.0529664e-39
1039.4392 -1243.616 141.80235 7.0529664e-39
-2634.3491 -1196.1566 151.62773 7.0529664e-39
1013.618 -1192.093 136.89987 7.0529664e-39
-2661.592 -1142.4072 151.79521 7.0529664e-39
-2650.1072 -1158.3651 151.57541 7.0529664e-39
903.67725 -1140.4387 178.66045 7.0529664e-39
-2668.7686 -1114.735 151.57542 7.0529664e-39
-2636.1511 -1086.0048 149.4192 7.0529664e-39
894.13489 -1100.8643 174.13911 7.0529664e-39
900.16553 -1089.6611 173.5419 7.0529664e-39
884.97211 -1057.6278 169.32527 7.0529664e-39
-2720.2104 -1009.6491 152.06503 7.0529664e-39
853.57849 -991.32617 160.62379 7.0529664e-39
865.68536 -1016.2337 163.91429 7.0529664e-39
-2752.5498 -948.85345 152.58545 7.0529664e-39
-2737.6772 -970.13806 152.21913 7.0529664e-39
843.86572 -968.65479 157.73956 7.0529664e-39
-2760.1931 -921.21509 152.50114 7.0529664e-39
821.47552 -921.22998 151.55325 7.0529664e-39
-2792.4622 -856.94 153.0827 7.0529664e-39
-2778.7983 -879.04907 152.74542 7.0529664e-39
809.68799 -889.6806 147.70566 7.0529664e-39
822.97064 -871.5744 147.19495 7.0529664e-39
855.45667 -861.91614 149.10715 7.0529664e-39
-2803.2812 -832.90509 153.26295 7.0529664e-39
-498.2236 -844.80261 155.33945 7.0529664e-39
-491.55759 -847.09766 155.12044 7.0529664e-39
774.6275 -817.1571 178.3353 7.0529664e-39
839.37079 -849.63611 146.64944 7.0529664e-39
866.10315 -844.39886 148.52391 7.0529664e-39
-2820.8611 -787.58093 153.49088 7.0529664e-39
759.31091 -783.40503 172.79752 7.0529664e-39
787.87842 -797.93402 157.4687 7.0529664e-39
-2841.7698 -751.48718 154.0509 7.0529664e-39
-2821.062 -736.62585 152.80353 7.0529664e-39
428.37836 -743.18475 135.86334 7.0529664e-39
740.97229 -744.22723 166.33678 7.0529664e-39
-2865.1406 -680.98071 154.33875 7.0529664e-39
-2815.2153 -698.82672 152.01851 7.0529664e-39
713.68085 -686.19818 156.80989 7.0529664e-39
724.15076 -708.31866 160.43921 7.0529664e-39
-2887.9753 -645.6228 155.08887 7.0529664e-39
-2876.8208 -664.6969 154.74001 7.0529664e-39
697.34106 -650.91284 151.08961 7.0529664e-39
-2903.2871 -608.39874 155.46107 7.0529664e-39
703.84265 -614.66888 148.0183 7.0529664e-39
723.07001 -602.87402 149.10812 7.0529664e-39
-2929.1384 -556.32446 156.25426 7.0529664e-39
-2918.4128 -575.74811 155.89572 7.0529664e-39
713.05133 -569.56104 144.54544 7.0529664e-39
742.30579 -554.73999 146.78313 7.0529664e-39
772.02832 -543.82965 149.57089 7.0529664e-39
-2945.4497 -521.17627 156.76363 7.0529664e-39
761.29803 -532.27704 147.1266 7.0529664e-39
788.70239 -516.66785 149.35022 7.0529664e-39
881.65887 -495.57361 160.1889 7.0529664e-39
-2971.5164 -466.21262 157.63589 7.0529664e-39
-2962.447 -481.754 157.29572 7.0529664e-39
763.69946 -465.43304 141.6514 7.0529664e-39
790.5993 -477.04129 146.25203 7.0529664e-39
832.3288 -480.16391 152.1951 7.0529664e-39
891.0177 -492.46326 161.24484 7.0529664e-39
922.13708 -478.30942 164.54063 7.0529664e-39
946.67297 -466.43631 167.15021 7.0529664e-39
-2986.6809 -431.72794 158.15344 7.0529664e-39
763.1413 -448.09052 140.1653 7.0529664e-39
-2999.2043 -381.4541 158.44911 7.0529664e-39
-3028.4182 -315.62781 159.5723 7.0529664e-39
-2981.9871 -336.83035 157.27478 7.0529664e-39
-3052.0137 -288.90018 160.66556 7.0529664e-39
-3073.7764 -244.66461 161.60036 7.0529664e-39
-3085.5081 -218.73555 162.11066 7.0529664e-39
-2633.655 -158.93265 138.27681 7.0529664e-39
-3136.0549 -109.33785 164.45453 7.0529664e-39
-2630.3701 -122.26693 138.00121 7.0529664e-39
-3158.6875 -63.025005 165.57352 7.0529664e-39
-3143.9946 -86.444847 164.83209 7.0529664e-39
-3168.425 -37.468399 166.06203 7.0529664e-39
-3137.0715 -9.9706001 164.40819 7.0529664e-39
1312.1458 -0.68699998 161.1113 7.0529664e-39
-3201.3535 40.231499 167.78909 7.0529664e-39
-3167.9829 32.63855 166.0358 7.0529664e-39
-3141.9092 12.343225 164.66199 7.0529664e-39
-3214.9094 64.641357 168.52176 7.0529664e-39
-3244.4995 124.08116 170.16162 7.0529664e-39
-3234.1511 101.75719 169.57898 7.0529664e-39
-3259.4951 156.51514 171.0208 7.0529664e-39
-3288.1167 220.12575 172.70869 7.0529664e-39
-3278.4458 198.99951 172.13297 7.0529664e-39
-3302.4578 249.41658 173.56845 7.0529664e-39
-1000.2585 246.33533 163.16116 7.0529664e-39
-988.85059 246.55042 161.41431 7.0529664e-39
-3330.0039 310.08759 175.2731 7.0529664e-39
-3321.228 288.54858 174.71487 7.0529664e-39
-3334.9375 321.51062 175.58714 7.0529664e-39
-3307.7173 345.87314 174.2962 7.0529664e-39
-3311.0222 377.02371 174.6451 7.0529664e-39
-3385.9517 426.1972 178.85161 7.0529664e-39
-2939.144 428.77109 155.66461 7.0529664e-39
-2912.8757 442.43649 154.40851 7.0529664e-39
-3399.2483 452.9527 179.72169 7.0529664e-39
-2916.363 471.13406 154.82283 7.0529664e-39
-3003.824 567.4939 160.20909 7.0529664e-39
-2836.95 571.90192 151.66959 7.0529664e-39
-3011.3005 588.61115 160.80225 7.0529664e-39
-3067.53 637.29633 164.19534 7.0529664e-39
-3053.3481 656.37225 163.67548 7.0529664e-39
-3062.6743 684.30859 164.46576 7.0529664e-39
-3058.0586 675.15601 164.1256 7.0529664e-39
685.45825 970.06824 145.84949 7.0529664e-39
-376.81378 1033.2798 163.00787 7.0529664e-39
669.32355 1005.1702 148.28018 7.0529664e-39
-372.38638 1042.5656 167.37398 7.0529664e-39
-353.30957 1043.4402 174.48308 7.0529664e-39
-414.89828 1089.1041 143.10168 7.0529664e-39
-1677.2272 1182.9486 179.56575 7.0529664e-39
-1645.998 1203.0048 178.37149 7.0529664e-39
-1622.05 1217.1312 177.42003 7.0529664e-39
-1597.0515 1233.3293 176.54123 7.0529664e-39
-1563.8727 1251.6538 175.24843 7.0529664e-39
-1550.7836 1274.5249 175.61884 7.0529664e-39
-1575.4882 1319.6504 179.80231 7.0529664e-39
-1572.7418 1313.6176 179.2794 7.0529664e-39
-278.08008 1389.6029 174.00505 7.0529664e-39
-291.27396 1409.7454 176.75121 7.0529664e-39
-683.98291 1700.5959 160.36659 7.0529664e-39
-669.75085 1705.7174 160.323 7.0529664e-39
-370.46924 1842.9397 164.46289 7.0529664e-39
-350.88913 1840.8578 163.95448 7.0529664e-39
-374.4054 1845.2063 164.7244 7.0529664e-39
-335.82642 1848.5648 164.37576 7.0529664e-39
-1717.4895 1969.1486 136.93704 7.0529664e-39
-1705.709 1943.6294 135.52396 7.0529664e-39
-1730.2607 1996.4203 138.4548 7.0529664e-39
-1757.3026 2056.8101 141.77811 7.0529664e-39
-1747.8289 2035.9968 140.62675 7.0529664e-39
-1772.4113 2091.4802 143.67529 7.0529664e-39
-1791.7949 2134.251 146.04349 7.0529664e-39
-1814.8733 2186.314 148.91321 7.0529664e-39
-1835.5789 2233.1104 151.49515 7.0529664e-39
-1854.3519 2273.6699 153.76306 7.0529664e-39
-1874.396 2317.2097 156.19666 7.0529664e-39
-1897.095 2368.8088 159.049 7.0529664e-39
-1888.0887 2349.1482 157.94991 7.0529664e-39
-1915.5398 2406.4724 161.19476 7.0529664e-39
-1939.6248 2461.2859 164.23019 7.0529664e-39
-1933.3865 2444.5813 163.3405 7.0529664e-39
-1958.4564 2500.4595 166.4545 7.0529664e-39
-1986.3228 2561.6748 169.88251 7.0529664e-39
-1976.6846 2540.0776 168.6788 7.0529664e-39
-2000.9369 2592.6636 171.63574 7.0529664e-39
-2025.8832 2645.9148 174.6451 7.0529664e-39
-2015.4366 2623.7227 173.38901 7.0529664e-39
-2040.5864 2678.6641 176.47685 7.0529664e-39
-2065.8162 2733.4814 179.5647 7.0529664e-39
-525.85999 -2303.0283 206.67532 7.0529664e-39
-505.26825 -2292.3379 205.36801 7.0529664e-39
-474.32614 -2278.4314 203.61325 7.0529664e-39
-431.58514 -2260.1262 201.31042 7.0529664e-39
-15.7246 -2252.3413 197.0591 7.0529664e-39
1138.5807 -2279.0132 222.88628 7.0529664e-39
-408.61151 -2248.4436 199.9353 7.0529664e-39
-382.68002 -2236.3367 198.50116 7.0529664e-39
-335.49738 -2214.5034 195.95781 7.0529664e-39
-6.3730497 -2246.1575 196.51439 7.0529664e-39
21.130962 -2230.2134 195.13083 7.0529664e-39
-301.61835 -2198.9226 194.18298 7.0529664e-39
-246.03926 -2174.3403 191.44632 7.0529664e-39
-220.69766 -2161.4619 190.08664 7.0529664e-39
26.642899 -2201.4272 192.6142 7.0529664e-39
160.14073 -2180.5701 191.28941 7.0529664e-39
-199.90601 -2150.5664 188.96333 7.0529664e-39
-157.71465 -2142.1809 187.92787 7.0529664e-39
-112.64697 -2136.5559 187.18675 7.0529664e-39
-75.557114 -2120.7822 185.66351 7.0529664e-39
-54.087624 -2110.9824 184.74841 7.0529664e-39
-31.551125 -2097.7307 183.55 7.0529664e-39
1390.9932 -2042.9692 216.2334 7.0529664e-39
1320.1462 -1906.7285 202.89854 7.0529664e-39
1295.1011 -1848.9091 197.4949 7.0529664e-39
1313.6229 -1880.9347 200.7197 7.0529664e-39
1280.8418 -1818.7506 194.61874 7.0529664e-39
1264.674 -1787.4858 191.5683 7.0529664e-39
1241.3422 -1725.2748 185.95302 7.0529664e-39
1233.9598 -1685.2141 182.73654 7.0529664e-39
837.02521 -1596.3285 221.3147 7.0529664e-39
-2077.8237 -1491.7881 223.78691 7.0529664e-39
-2068.3584 -1508.835 223.99025 7.0529664e-39
-196.13229 -1505.9203 186.46948 7.0529664e-39
-165.83354 -1497.4032 184.9841 7.0529664e-39
-2086.8772 -1469.5931 223.30754 7.0529664e-39
-1897.0431 -1442.0226 208.4765 7.0529664e-39
-1937.9156 -1425.6246 210.48109 7.0529664e-39
-1910.0085 -1426.4398 208.56369 7.0529664e-39
917.31287 -1359.052 201.3282 7.0529664e-39
936.48291 -1341.7837 200.91034 7.0529664e-39
961.45398 -1320.1078 200.52841 7.0529664e-39
-614.72076 -1271.9656 223.75995 7.0529664e-39
985.01703 -1298.8154 200.15009 7.0529664e-39
999.8255 -1285.6067 199.97237 7.0529664e-39
-678.46619 -1244.3918 224.48344 7.0529664e-39
-652.03687 -1250.2279 223.339 7.0529664e-39
666.65906 -1239.9204 222.9713 7.0529664e-39
649.56769 -1190.4026 214.7845 7.0529664e-39
627.70111 -1138.184 205.86774 7.0529664e-39
633.2821 -1134.6226 205.80516 7.0529664e-39
637.8783 -1120.593 204.22517 7.0529664e-39
714.70197 -1057.816 202.20024 7.0529664e-39
731.71057 -1042.5732 201.74181 7.0529664e-39
705.63733 -1014.2859 195.69951 7.0529664e-39
743.41345 -1024.6903 200.50987 7.0529664e-39
743.12085 -962.5683 192.619 7.0529664e-39
769.06641 -946.16675 193.11835 7.0529664e-39
1129.8352 -967.01831 182.60092 7.0529664e-39
788.97504 -937.82703 194.11777 7.0529664e-39
817.6402 -923.35126 195.34398 7.0529664e-39
801.40637 -874.01508 187.81523 7.0529664e-39
811.92456 -896.37329 191.554 7.0529664e-39
786.11438 -840.92963 182.32439 7.0529664e-39
1309.6747 -0.45719999 207.4321 7.0529664e-39
-3408.2603 475.49155 180.34972 7.0529664e-39
-3470.8398 610.66541 184.6936 7.0529664e-39
-3463.4678 588.91107 184.1179 7.0529664e-39
-1720.5966 625.15454 224.7758 7.0529664e-39
-3480.2551 631.8421 185.37399 7.0529664e-39
-1712.5837 631.46588 224.11771 7.0529664e-39
-1702.0806 645.96545 223.53546 7.0529664e-39
-3556.3752 803.42072 191.0786 7.0529664e-39
-1536.8324 800.22443 212.74904 7.0529664e-39
-3567.9399 826.242 191.93687 7.0529664e-39
-1530.3929 810.98541 212.662 7.0529664e-39
-1506.8195 828.70331 211.15659 7.0529664e-39
-1480.793 850.0307 209.64574 7.0529664e-39
-1458.6932 868.43658 208.44881 7.0529664e-39
-1430.3088 891.15906 206.92061 7.0529664e-39
-3622.6401 944.97748 196.2075 7.0529664e-39
-2028.6937 916.20807 194.74951 7.0529664e-39
-2014.6971 935.97894 194.35732 7.0529664e-39
-1407.6534 909.82941 205.80077 7.0529664e-39
-1389.3785 927.36652 205.10612 7.0529664e-39
-3634.4812 970.48615 197.14957 7.0529664e-39
-1990.4508 959.26837 193.31143 7.0529664e-39
-1964.2329 980.75659 192.08038 7.0529664e-39
-1409.6871 967.96155 209.96564 7.0529664e-39
680.31427 986.17169 189.755 7.0529664e-39
-3656.0894 1012.8029 198.82431 7.0529664e-39
-1944.3812 993.84485 191.04539 7.0529664e-39
-1912.759 1012.2043 189.3358 7.0529664e-39
-1885.0527 1030.7515 187.96587 7.0529664e-39
-1430.3361 1011.8913 215.12988 7.0529664e-39
623.87744 1004.2518 187.25204 7.0529664e-39
653.41272 1014.8136 191.17337 7.0529664e-39
678.33105 996.75952 190.96176 7.0529664e-39
-3670.6682 1047.6969 200.0542 7.0529664e-39
-1897.1276 1064.7255 190.33072 7.0529664e-39
-1885.3462 1042.2767 188.47424 7.0529664e-39
-1450.887 1057.7162 220.46165 7.0529664e-39
-516.60638 1069.9153 188.19069 7.0529664e-39
-492.49677 1079.6854 187.95599 7.0529664e-39
-3702.6211 1115.5437 202.66232 7.0529664e-39
-1916.2036 1101.5398 193.3737 7.0529664e-39
-1464.7632 1087.4423 223.99585 7.0529664e-39
-470.52066 1091.3186 188.24046 7.0529664e-39
-430.27866 1104.1261 187.69376 7.0529664e-39
-3717.4399 1150.7627 203.94452 7.0529664e-39
-1941.7046 1157.8081 197.78545 7.0529664e-39
-1930.7861 1134.042 195.9043 7.0529664e-39
-1702.6655 1163.874 180.44144 7.0529664e-39
-3738.9868 1199.2634 205.78497 7.0529664e-39
-3727.322 1176.6508 204.8429 7.0529664e-39
-1957.4655 1189.468 200.39595 7.0529664e-39
-1690.2408 1175.1846 180.10735 7.0529664e-39
-3755.3096 1234.1083 207.16318 7.0529664e-39
-1982.9612 1252.4524 205.19366 7.0529664e-39
-1973.1793 1229.1698 203.38664 7.0529664e-39
-3785.3538 1300.4465 209.7625 7.0529664e-39
-3775.7075 1280.7733 208.95131 7.0529664e-39
-1998.0194 1283.4385 207.76187 7.0529664e-39
-3796.1892 1325.8687 210.73599 7.0529664e-39
-3343.1328 1340.9893 188.7758 7.0529664e-39
-2033.6901 1344.0293 213.2701 7.0529664e-39
-2011.8164 1332.4777 211.12025 7.0529664e-39
-1584.0573 1337.7021 181.39288 7.0529664e-39
-3819.4343 1373.2946 212.71426 7.0529664e-39
-3335.0593 1363.5657 188.82816 7.0529664e-39
-1599.0917 1371.9006 184.3344 7.0529664e-39
-3835.0396 1406.2166 214.0715 7.0529664e-39
-1624.6982 1428.0137 189.2442 7.0529664e-39
-1615.3816 1406.3862 187.38487 7.0529664e-39
-1541.2207 1419.6093 183.32336 7.0529664e-39
-304.57269 1439.0759 180.6104 7.0529664e-39
-3866.373 1476.8147 216.9064 7.0529664e-39
-1642.1426 1465.2043 192.54446 7.0529664e-39
-1504.4465 1455.2545 183.12764 7.0529664e-39
-320.68585 1475.7166 185.42419 7.0529664e-39
-311.4758 1455.3647 182.7431 7.0529664e-39
-3946.731 1489.7676 221.08453 7.0529664e-39
-3880.4536 1506.9093 218.16241 7.0529664e-39
-1666.2626 1511.585 196.82672 7.0529664e-39
-1638.6647 1520.7496 195.59492 7.0529664e-39
-1509.9525 1505.7825 186.56555 7.0529664e-39
-335.27954 1507.5667 189.62869 7.0529664e-39
-3896.6582 1541.7546 219.61914 7.0529664e-39
-1626.1825 1532.4369 195.4903 7.0529664e-39
-1535.1582 1562.7399 191.65546 7.0529664e-39
-1527.5889 1545.0234 190.0867 7.0529664e-39
-608.54974 1542.0085 203.54619 7.0529664e-39
-1550.8483 1596.1488 194.70592 7.0529664e-39
-3944.1875 1643.436 223.93243 7.0529664e-39
-1578.7667 1658.4524 200.3275 7.0529664e-39
-1570.3291 1638.96 198.5844 7.0529664e-39
-3953.4443 1665.9362 224.8353 7.0529664e-39
-1591.8617 1688.2395 203.00749 7.0529664e-39
-680.49792 1685.1382 223.14281 7.0529664e-39
-1612.177 1732.1121 207.02397 7.0529664e-39
-1628.8588 1771.8682 210.56828 7.0529664e-39
-1647.9963 1812.415 214.31598 7.0529664e-39
-1676.4539 1873.0557 219.923 7.0529664e-39
-1663.1281 1847.0908 217.4536 7.0529664e-39
-1691.2881 1907.8691 223.06058 7.0529664e-39
-860.71234 2087.5623 197.55301 7.0529664e-39
-991.3324 2310.7239 219.98109 7.0529664e-39
-984.05402 2314.9153 220.0683 7.0529664e-39
-991.69733 2341.9727 222.50861 7.0529664e-39
-2081.6265 2768.4585 181.52725 7.0529664e-39
-2103.9978 2816.5859 184.24875 7.0529664e-39
-2124.8945 2863.2788 186.86551 7.0529664e-39
-2140.1453 2898.5835 188.82809 7.0529664e-39
-2154.6111 2928.8599 190.55521 7.0529664e-39
-2185.9507 2994.4136 194.29726 7.0529664e-39
-2204.166 3034.8882 196.5739 7.0529664e-39
-2220.4229 3073.0522 198.69345 7.0529664e-39
-2257.1909 3149.3259 203.06351 7.0529664e-39
-2241.1072 3115.387 201.12711 7.0529664e-39
-2270.2361 3178.0581 204.6859 7.0529664e-39
-2282.6365 3207.2373 206.3083 7.0529664e-39
-2311.7512 3269.8413 209.8672 7.0529664e-39
-2326.7456 3300.8176 211.64661 7.0529664e-39
-2348.4697 3349.6309 214.39426 7.0529664e-39
-2370.6016 3396.9141 217.08949 7.0529664e-39
-2386.9021 3433.0232 219.1306 7.0529664e-39
-2408.6406 3481.1406 221.85211 7.0529664e-39
-4398.4214 9492.9355 182.62199 7.0529664e-39
-4373.749 9500.4736 182.5609 7.0529664e-39
-5772.8315 9710.9697 197.1947 7.0529664e-39
-5742.4019 9730.5322 197.218 7.0529664e-39
4676.5225 -14090.982 259.15079 7.0529664e-39
4710.7773 -14079.034 259.14206 7.0529664e-39
4754.1855 -14061.797 259.09839 7.0529664e-39
4786.0801 -14050.979 259.09839 7.0529664e-39
4163.8276 -13018.227 238.57437 7.0529664e-39
4212.4824 -12999.418 238.522 7.0529664e-39
4254.5884 -12986.226 238.53075 7.0529664e-39
846.55603 -4463.1899 238.07629 7.0529664e-39
790.26776 -4432.9189 235.98286 7.0529664e-39
820.96582 -4443.9326 236.83763 7.0529664e-39
-701.15698 -2952.29 265.47641 7.0529664e-39
295.72519 -2657.3823 233.92599 7.0529664e-39
306.24316 -2645.4888 232.99638 7.0529664e-39
328.4823 -2642.4773 232.96732 7.0529664e-39
1190.6792 -2454.4995 238.67598 7.0529664e-39
-1824.4613 -2307.1414 257.33603 7.0529664e-39
-1796.5743 -2295.3787 255.0177 7.0529664e-39
-1778.4373 -2290.8799 253.73219 7.0529664e-39
171.73752 -2177.1677 268.15314 7.0529664e-39
-200.29504 -2149.0803 265.02151 7.0529664e-39
-168.34306 -2135.082 262.9697 7.0529664e-39
152.75555 -2137.2014 263.08545 7.0529664e-39
-95.333069 -2099.386 258.03806 7.0529664e-39
-58.761169 -2078.4236 255.30273 7.0529664e-39
-41.955299 -2072.0117 254.4632 7.0529664e-39
-20.309713 -2061.1965 253.09822 7.0529664e-39
20.898579 -2043.4254 250.91962 7.0529664e-39
52.049702 -2031.2665 249.49095 7.0529664e-39
109.60247 -2039.0531 250.72588 7.0529664e-39
75.017357 -2019.6661 248.15646 7.0529664e-39
97.250481 -2013.5112 247.51665 7.0529664e-39
-1953.0876 -1944.0776 241.0946 7.0529664e-39
-1967.2655 -1911.7855 240.00076 7.0529664e-39
-1988.0487 -1865.0482 238.49078 7.0529664e-39
-1977.92 -1886.842 239.1554 7.0529664e-39
-2008.3518 -1822.8389 237.29338 7.0529664e-39
898.45984 -1812.3254 248.36969 7.0529664e-39
-2032.4169 -1771.4431 235.8761 7.0529664e-39
-2022.5802 -1794.1554 236.54065 7.0529664e-39
896.27661 -1790.8651 245.89171 7.0529664e-39
909.44971 -1786.8062 246.1761 7.0529664e-39
-2397.0471 -1722.4531 258.24249 7.0529664e-39
-2049.9333 -1733.2971 234.86537 7.0529664e-39
-2420.449 -1674.1262 257.47983 7.0529664e-39
-2196.0125 -1693.9026 242.6416 7.0529664e-39
858.05792 -1668.1676 230.3331 7.0529664e-39
-2439.1672 -1623.0345 256.32501 7.0529664e-39
-2232.8818 -1626.4553 241.68291 7.0529664e-39
-2092.0283 -1632.098 232.1393 7.0529664e-39
-1998.2268 -1636.0612 225.94643 7.0529664e-39
861.07922 -1657.6643 229.35809 7.0529664e-39
-2452.9895 -1596.5348 256.06357 7.0529664e-39
-2238.0977 -1614.1669 241.4214 7.0529664e-39
-2042.7098 -1609.1635 227.50554 7.0529664e-39
-2013.3278 -1606.8763 225.36734 7.0529664e-39
-2478.0552 -1540.9562 255.30096 7.0529664e-39
-2469.0779 -1559.6829 255.50578 7.0529664e-39
-2042.9984 -1563.3096 225.06519 7.0529664e-39
-2492.6458 -1509.4709 254.94992 7.0529664e-39
-197.78387 -1515.9535 242.14102 7.0529664e-39
-167.85112 -1503.5824 239.62633 7.0529664e-39
-2509.7275 -1479.5187 254.88696 7.0529664e-39
-2541.0464 -1414.0837 254.42007 7.0529664e-39
707.83331 -1395.2157 247.79221 7.0529664e-39
-2566.6238 -1354.0861 253.8847 7.0529664e-39
-2556.6272 -1379.1268 254.14612 7.0529664e-39
-589.0246 -1357.2543 234.33881 7.0529664e-39
713.45331 -1391.5131 247.67487 7.0529664e-39
725.12469 -1385.8573 247.72964 7.0529664e-39
-2579.7859 -1327.8842 253.84981 7.0529664e-39
-588.61273 -1326.2574 229.81961 7.0529664e-39
-2610.6411 -1263.7205 253.75395 7.0529664e-39
-2598.2908 -1286.3423 253.65593 7.0529664e-39
-596.03772 -1297.6909 226.17816 7.0529664e-39
-2623.0701 -1236.2249 253.70166 7.0529664e-39
-720.4176 -1254.8711 229.1765 7.0529664e-39
-699.67371 -1249.2679 226.78734 7.0529664e-39
665.5462 -1258.0597 225.4221 7.0529664e-39
-2641.8264 -1191.8442 253.56514 7.0529664e-39
-2661.5581 -1142.1898 253.39442 7.0529664e-39
-2651.3921 -1167.1938 253.4489 7.0529664e-39
-2673.4014 -1117.5735 253.507 7.0529664e-39
-2706.9934 -1049.1182 253.99675 7.0529664e-39
-2724.071 -1011.3892 254.22363 7.0529664e-39
-2747.7666 -956.69324 254.5529 7.0529664e-39
-2738.5251 -975.41376 254.33501 7.0529664e-39
-2761.9187 -924.81464 254.82596 7.0529664e-39
-2793.4485 -858.30835 255.67136 7.0529664e-39
-2779.9355 -882.71356 255.18112 7.0529664e-39
-2804.4719 -833.78815 255.97643 7.0529664e-39
-2825.4109 -789.17865 256.65622 7.0529664e-39
-2841.7317 -751.87781 257.1748 7.0529664e-39
-2834.125 -762.05298 256.7608 7.0529664e-39
-2874.0269 -686.59338 258.52139 7.0529664e-39
-2889.4351 -653.56213 259.18179 7.0529664e-39
-2911.2183 -607.84875 260.19479 7.0529664e-39
-2932.7976 -558.84937 261.20575 7.0529664e-39
-2924.3198 -581.68341 260.85709 7.0529664e-39
-2951.6814 -517.07819 262.17419 7.0529664e-39
-2977.7246 -464.95993 263.67517 7.0529664e-39
-2964.8748 -488.52719 262.89081 7.0529664e-39
-2994.9719 -428.06583 264.69205 7.0529664e-39
-3008.6226 -396.62473 265.49817 7.0529664e-39
-3042.7209 -325.70401 267.72501 7.0529664e-39
-3065.6731 -288.71179 269.39841 7.0529664e-39
-3053.3525 -304.76062 268.46149 7.0529664e-39
-2626.8206 -235.088 230.73613 7.0529664e-39
-2624.1404 -200.80222 230.25676 7.0529664e-39
-2630.3225 -157.23775 230.53662 7.0529664e-39
-2619.0718 -112.3959 229.35034 7.0529664e-39
-2606.1709 -128.98514 228.28992 7.0529664e-39
-1675.0609 158.87662 266.50177 7.0529664e-39
-1665.6853 182.12759 265.39111 7.0529664e-39
-1650.1199 206.23184 263.39392 7.0529664e-39
-1629.8698 238.49449 260.89792 7.0529664e-39
-1615.1644 259.5257 259.10016 7.0529664e-39
-1591.3441 291.48944 256.24835 7.0529664e-39
-1566.1125 335.31241 253.67802 7.0529664e-39
-1580.488 370.17664 257.10007 7.0529664e-39
-1607.8417 429.19577 263.57788 7.0529664e-39
-1834.0428 491.4303 233.13609 7.0529664e-39
-1627.1809 471.13409 268.30746 7.0529664e-39
-1618.5383 454.14014 266.25146 7.0529664e-39
-3010.3857 536.50037 267.52454 7.0529664e-39
-2837.7778 533.38245 252.62091 7.0529664e-39
-2827.1233 538.7912 251.79289 7.0529664e-39
-1820.4233 515.4137 232.31346 7.0529664e-39
-1798.4929 536.83771 230.4549 7.0529664e-39
-1409.145 527.47913 238.31488 7.0529664e-39
-3003.6309 550.05438 267.15411 7.0529664e-39
-2838.8425 582.21442 253.5361 7.0529664e-39
-2819.8269 559.82507 251.51906 7.0529664e-39
-1778.5729 563.05469 229.07137 7.0529664e-39
-1398.7766 544.32812 237.72827 7.0529664e-39
-1378.8544 566.05731 236.08565 7.0529664e-39
-2838.7976 587.37 253.6232 7.0529664e-39
-1758.9818 586.15851 227.6519 7.0529664e-39
-1740.8586 603.89795 226.25046 7.0529664e-39
-1355.6172 593.05713 234.3584 7.0529664e-39
-1334.7496 616.14166 232.8475 7.0529664e-39
-1713.1987 670.36328 225.88486 7.0529664e-39
-1313.4286 637.11096 231.21014 7.0529664e-39
-1291.7881 659.44678 229.72403 7.0529664e-39
-1727.3391 695.73975 228.65129 7.0529664e-39
-1284.0239 694.06165 231.18172 7.0529664e-39
-1758.0166 760.88721 235.20786 7.0529664e-39
-1746.2092 735.42261 232.64857 7.0529664e-39
-1312.5323 747.14264 239.20786 7.0529664e-39
-1302.1523 725.76428 236.11174 7.0529664e-39
-1769.7688 787.84015 237.86188 7.0529664e-39
-1331.3904 787.71844 245.01904 7.0529664e-39
-1790.0195 832.75403 242.41031 7.0529664e-39
-1357.2489 845.87903 253.29869 7.0529664e-39
-1346.3331 821.43048 249.79454 7.0529664e-39
-1810.4803 879.13751 247.12398 7.0529664e-39
-1371.9438 877.90918 257.97781 7.0529664e-39
-1830.3405 922.86804 251.69067 7.0529664e-39
-1398.2885 937.25781 266.61646 7.0529664e-39
-1388.1171 913.88123 263.22711 7.0529664e-39
-1403.7815 950.31775 268.49371 7.0529664e-39
-1474.9467 1109.2948 226.60388 7.0529664e-39
-1494.1237 1152.9071 231.7224 7.0529664e-39
-1483.3535 1128.7878 228.87065 7.0529664e-39
-1511.7437 1191.2203 236.3221 7.0529664e-39
-1536.0847 1244.8104 242.76372 7.0529664e-39
-1526.5474 1223.4353 240.2045 7.0529664e-39
-1554.5269 1286.5153 247.76038 7.0529664e-39
-1581.012 1342.2234 254.646 7.0529664e-39
-1570.2085 1318.349 251.74144 7.0529664e-39
-1593.1395 1370.037 257.99741 7.0529664e-39
-1623.0416 1433.9271 265.91891 7.0529664e-39
-1613.3937 1412.9524 263.32919 7.0529664e-39
-1539.2327 1417.1832 256.9006 7.0529664e-39
-1630.8507 1452.4158 268.14297 7.0529664e-39
-1500.6224 1454.3953 256.59595 7.0529664e-39
-1505.5087 1507.2285 261.57227 7.0529664e-39
-1533.798 1572.29 269.6969 7.0529664e-39
-1520.9861 1544.5413 266.16266 7.0529664e-39
-611.62543 1539.2924 262.34061 7.0529664e-39
-3967.4875 1698.0115 226.16985 7.0529664e-39
-3957.2603 1674.8687 225.2016 7.0529664e-39
-3978.8066 1720.9686 227.19041 7.0529664e-39
-724.185 1785.24 236.5484 7.0529664e-39
-761.07178 1867.7443 247.6385 7.0529664e-39
-4070.458 1922.9496 235.93054 7.0529664e-39
-1702.6328 1933.2975 225.3848 7.0529664e-39
-4086.2793 1954.0256 237.37845 7.0529664e-39
-1719.0436 1970.5767 228.7838 7.0529664e-39
-1707.8201 1944.6552 226.4306 7.0529664e-39
-4102.8457 1994.0144 239.07065 7.0529664e-39
-1734.6746 2003.8403 231.87784 7.0529664e-39
-1758.5488 2057.5508 236.80215 7.0529664e-39
-1750.2388 2038.4358 235.05901 7.0529664e-39
-1773.9567 2092.1824 239.98331 7.0529664e-39
-1800.311 2150.0957 245.3434 7.0529664e-39
-1790.0598 2128.7866 243.33881 7.0529664e-39
-1812.5624 2179.6582 248.01616 7.0529664e-39
-1830.4551 2218.9526 251.6622 7.0529664e-39
-1856.3831 2275.6355 256.93515 7.0529664e-39
-1874.7781 2320.1541 260.97339 7.0529664e-39
-1895.5883 2369.469 265.47641 7.0529664e-39
-1889.3312 2354.0579 264.08191 7.0529664e-39
-1905.5281 2389.5789 267.3938 7.0529664e-39
-2483.2981 3632.2024 230.59219 7.0529664e-39
-2567.6453 3806.6907 240.6407 7.0529664e-39
-2734.9749 4181.0718 261.83679 7.0529664e-39
4577.0713 -16939.867 306.2897 7.0529664e-39
486.88263 -3082.1929 273.00082 7.0529664e-39
515.93347 -3067.1294 272.11111 7.0529664e-39
-2275.8843 -2709.1965 309.55975 7.0529664e-39
-2232.3291 -2695.5212 306.19992 7.0529664e-39
-2180.7544 -2672.2615 301.7623 7.0529664e-39
-2134.0269 -2648.6677 297.58456 7.0529664e-39
-612.71973 -2483.3186 314.05731 7.0529664e-39
-636.20172 -2430.24 308.45129 7.0529664e-39
-628.2644 -2448.7024 310.40121 7.0529664e-39
-503.56421 -2433.772 305.16086 7.0529664e-39
-461.94064 -2458.8535 307.19199 7.0529664e-39
-430.10397 -2443.1013 304.59216 7.0529664e-39
-641.24957 -2403.24 305.4046 7.0529664e-39
-526.98389 -2423.7358 304.55151 7.0529664e-39
-395.45529 -2425.5183 301.7485 7.0529664e-39
-647.99963 -2354.094 299.79855 7.0529664e-39
-621.03888 -2343.9109 297.72681 7.0529664e-39
-594.31842 -2329.823 295.22845 7.0529664e-39
-555.35596 -2313.7344 292.16144 7.0529664e-39
-531.17004 -2300.7476 289.92715 7.0529664e-39
-150.5491 -2312.1851 284.50397 7.0529664e-39
-122.5211 -2299.4453 282.73691 7.0529664e-39
233.90324 -2312.1409 285.34488 7.0529664e-39
-507.85541 -2290.0674 288.01788 7.0529664e-39
-470.07541 -2274.866 285.22299 7.0529664e-39
-427.14111 -2253.2966 281.59946 7.0529664e-39
-87.454956 -2281.6763 280.36041 7.0529664e-39
132.15311 -2291.9517 281.88379 7.0529664e-39
148.58301 -2286.5613 281.34756 7.0529664e-39
215.50012 -2273.9893 280.46201 7.0529664e-39
-405.3364 -2241.5398 279.69009 7.0529664e-39
-381.41934 -2233.0183 278.15457 7.0529664e-39
-339.30688 -2212.0537 274.78494 7.0529664e-39
193.91028 -2233.3572 275.25412 7.0529664e-39
-316.3392 -2200.6833 272.9873 7.0529664e-39
-312.88199 -2201.1775 272.9873 7.0529664e-39
180.2455 -2197.0637 270.67181 7.0529664e-39
-1903.0306 -1417.8578 291.38962 7.0529664e-39
-1887.3748 -1422.241 290.1709 7.0529664e-39
-2548.1978 -136.2213 313.32611 7.0529664e-39
-3282.0796 -95.1166 287.26529 7.0529664e-39
-3208.1904 -99.7005 280.8158 7.0529664e-39
-3177.2493 -113.96696 278.15274 7.0529664e-39
-2537.2937 -112.69175 311.85144 7.0529664e-39
-3271.1917 -71.815399 286.26303 7.0529664e-39
-2554.8516 -86.090195 313.87451 7.0529664e-39
-1635.6826 489.58917 270.42303 7.0529664e-39
-1648.7445 518.21307 273.73624 7.0529664e-39
-1672.2819 569.48279 279.80258 7.0529664e-39
-1662.4198 549.36688 277.30618 7.0529664e-39
-1685.1566 598.46674 283.23578 7.0529664e-39
-3089.2168 659.00726 276.35342 7.0529664e-39
-1416.2683 976.3844 272.45673 7.0529664e-39
-1440.8259 1033.0522 280.7999 7.0529664e-39
-1431.6099 1010.6918 277.55948 7.0529664e-39
-1450.9106 1054.9773 284.1297 7.0529664e-39
-1471.8055 1100.0154 291.02679 7.0529664e-39
-1494.0322 1149.5762 298.57471 7.0529664e-39
-1515.7489 1197.0294 305.90762 7.0529664e-39
-1536.9208 1244.4886 313.22092 7.0529664e-39
-1526.3079 1221.0574 309.5838 7.0529664e-39
-1488.5927 1304.5417 313.49469 7.0529664e-39
-1488.7341 1311.1138 314.19861 7.0529664e-39
-1639.7982 1471.8235 270.5499 7.0529664e-39
-1641.7014 1513.8711 274.20599 7.0529664e-39
-1622.2351 1531.9276 273.96231 7.0529664e-39
-1618.3856 1533.1086 273.71851 7.0529664e-39
-1544.0603 1597.7344 272.81668 7.0529664e-39
-1560.949 1635.739 277.61838 7.0529664e-39
-838.37311 1641.8572 291.98492 7.0529664e-39
-1584.8926 1690.2799 284.50397 7.0529664e-39
-1574.369 1665.4307 281.3963 7.0529664e-39
-1603.7434 1732.0677 289.83575 7.0529664e-39
-1627.3436 1782.3933 296.34558 7.0529664e-39
-1645.6216 1822.8824 301.53522 7.0529664e-39
-1673.1444 1885.8334 309.5481 7.0529664e-39
-1661.5159 1858.3091 306.07483 7.0529664e-39
-1682.8418 1909.0546 312.47299 7.0529664e-39
-890.85858 2167.1045 287.69287 7.0529664e-39
-959.23584 2307.8169 306.867 7.0529664e-39
-1923.9948 2428.3479 271.05441 7.0529664e-39
-1943.4689 2468.8218 274.88919 7.0529664e-39
-1934.9961 2450.1299 273.14609 7.0529664e-39
-1957.386 2499.0566 277.7218 7.0529664e-39
-1983.5435 2552.5659 282.8204 7.0529664e-39
-1972.8506 2530.5913 280.72861 7.0529664e-39
-1999.1492 2585.2136 285.91446 7.0529664e-39
-2023.8525 2638.4895 290.9259 7.0529664e-39
-2041.4973 2674.5347 294.36856 7.0529664e-39
-2055.3845 2705.9075 297.28821 7.0529664e-39
-2089.7432 2769.854 303.56348 7.0529664e-39
-2299.3174 4739.4673 276.0722 7.0529664e-39
-2273.8413 4748.8428 275.9361 7.0529664e-39
-2242.4817 4765.5161 276.01981 7.0529664e-39
-2220.8384 4777.8364 276.12451 7.0529664e-39
-18209.043 -5276.4336 330.9151 7.0529664e-39
-17963.195 -5205.1943 326.4473 7.0529664e-39
-2836.2944 -2955.5945 358.3844 7.0529664e-39
-2807.2371 -2943.407 355.8569 7.0529664e-39
-2779.1216 -2931.6558 353.4165 7.0529664e-39
-2755.8877 -2921.4053 351.36835 7.0529664e-39
-2726.6863 -2909.2075 348.84085 7.0529664e-39
-2679.3276 -2890.0234 344.78815 7.0529664e-39
-2653.1887 -2880.2725 342.60919 7.0529664e-39
-2544.7769 -2826.7341 332.76062 7.0529664e-39
-2493.8335 -2803.2634 328.25757 7.0529664e-39
-2467.0078 -2795.3135 326.18036 7.0529664e-39
-2445.3774 -2784.4946 324.21939 7.0529664e-39
-2405.9807 -2769.958 320.99463 7.0529664e-39
-521.61993 -2660.3086 332.86581 7.0529664e-39
-390.21051 -2655.3264 329.5347 7.0529664e-39
-458.58289 -2630.272 327.82849 7.0529664e-39
-407.25269 -2627.6589 326.48801 7.0529664e-39
-402.26105 -2634.9531 327.28009 7.0529664e-39
303.06332 -2644.3579 326.81293 7.0529664e-39
330.49719 -2638.8975 326.54892 7.0529664e-39
-570.5979 -2571.6765 323.44119 7.0529664e-39
-423.86905 -2587.2998 321.91785 7.0529664e-39
-592.87378 -2521.7903 318.07901 7.0529664e-39
-600.60663 -2503.6313 316.12909 7.0529664e-39
-1707.9792 -2343.9448 356.10223 7.0529664e-39
-1722.566 -2314.1355 354.22003 7.0529664e-39
-1811.9242 -2291.8196 358.72241 7.0529664e-39
-1780.0609 -2277.0889 354.88354 7.0529664e-39
-1743.157 -2273.7336 351.78455 7.0529664e-39
-47.887501 -2267.2268 359.17349 7.0529664e-39
-21.0898 -2256.2581 357.37451 7.0529664e-39
71.117844 -2256.7344 357.60919 7.0529664e-39
-363.47296 -2226.9058 357.37454 7.0529664e-39
-336.41245 -2215.1541 354.87155 7.0529664e-39
65.339798 -2241.1001 355.1062 7.0529664e-39
194.88817 -2228.6021 354.32407 7.0529664e-39
-309.53394 -2199.6382 351.82111 7.0529664e-39
-219.5867 -2161.7905 344.15579 7.0529664e-39
171.46724 -2176.043 345.72018 7.0529664e-39
-1862.3633 -2128.9863 347.31024 7.0529664e-39
-195.44225 -2150.1794 341.96576 7.0529664e-39
-154.2448 -2133.2534 338.75879 7.0529664e-39
-128.099 -2118.6731 336.1777 7.0529664e-39
155.44574 -2138.6257 339.6192 7.0529664e-39
-1880.5045 -2089.7695 345.18814 7.0529664e-39
-102.5695 -2108.1802 334.30048 7.0529664e-39
-63.719349 -2090.9309 331.32819 7.0529664e-39
-37.355701 -2077.7605 329.13809 7.0529664e-39
129.7551 -2085.4194 330.9371 7.0529664e-39
-1900.3806 -2046.1992 342.88617 7.0529664e-39
-9.5594006 -2064.7244 327.02625 7.0529664e-39
29.893326 -2046.0118 324.09308 7.0529664e-39
57.125038 -2033.16 322.15073 7.0529664e-39
114.6296 -2048.614 324.97696 7.0529664e-39
-1910.4675 -2023.7975 341.72159 7.0529664e-39
90.657303 -2019.7645 320.22131 7.0529664e-39
-2076.7896 -1958.4366 350.49619 7.0529664e-39
-2069.6941 -1970.2545 350.86179 7.0529664e-39
-1850.1406 -1941.9355 329.3316 7.0529664e-39
-2103.1099 -1900.6514 348.05884 7.0529664e-39
-1917.6481 -1905.0756 331.89899 7.0529664e-39
-1867.7832 -1911.3979 328.1434 7.0529664e-39
-2122.937 -1858.1765 346.41357 7.0529664e-39
-2111.8306 -1875.3052 346.77917 7.0529664e-39
-1908.2874 -1862.7377 327.43246 7.0529664e-39
-2146.7385 -1800.6891 344.0372 7.0529664e-39
-1922.3997 -1817.1659 324.80618 7.0529664e-39
894.07983 -1815.0149 320.45599 7.0529664e-39
-2152.0068 -1786.6304 343.4278 7.0529664e-39
-1940.7996 -1773.2548 322.79126 7.0529664e-39
-1932.0708 -1793.5067 323.685 7.0529664e-39
-1959.6528 -1731.9583 321.1257 7.0529664e-39
-1988.5135 -1672.7052 319.05389 7.0529664e-39
-1976.8501 -1692.5737 319.54138 7.0529664e-39
-1998.8325 -1645.7822 317.9165 7.0529664e-39
-2018.491 -1603.8667 316.55566 7.0529664e-39
-3365.7324 -1363.4706 317.7117 7.0529664e-39
-3376.834 -1336.3019 317.72626 7.0529664e-39
-2613.0889 -325.0155 323.31934 7.0529664e-39
-2608.4912 -319.0498 322.6694 7.0529664e-39
-2622.7764 -291.52121 324.02011 7.0529664e-39
-2604.5872 -306.42804 322.00925 7.0529664e-39
-2826.959 576.17993 354.24371 7.0529664e-39
-3710.3416 819.33563 332.43378 7.0529664e-39
-3659.844 829.4812 328.3157 7.0529664e-39
-1552.3309 1278.3164 318.50058 7.0529664e-39
-3385.2461 1307.9518 317.50836 7.0529664e-39
-3363.4387 1320.5507 316.13132 7.0529664e-39
-1576.9911 1338.6503 327.62592 7.0529664e-39
-1570.002 1326.4924 325.54013 7.0529664e-39
-1493.9319 1331.3047 316.93622 7.0529664e-39
-1563.391 1357.3176 327.91791 7.0529664e-39
-1509.1927 1360.6512 321.83786 7.0529664e-39
-1536.2004 1412.4451 330.52646 7.0529664e-39
-1527.4315 1432.9763 331.71927 7.0529664e-39
-1512.1183 1463.1415 333.26559 7.0529664e-39
-1503.7517 1503.5487 336.80341 7.0529664e-39
-1530.6906 1565.8208 346.81519 7.0529664e-39
-1520.7274 1546.0775 343.47797 7.0529664e-39
-1540.7092 1588.8011 350.53052 7.0529664e-39
-1558.4644 1630.0938 357.19202 7.0529664e-39
-1713.1116 1974.8824 321.00391 7.0529664e-39
-1700.9233 1947.7675 317.51031 7.0529664e-39
-1726.0225 2001.7676 324.53806 7.0529664e-39
-1744.8187 2043.1864 329.90033 7.0529664e-39
-1765.2983 2087.0027 335.6282 7.0529664e-39
-1784.1519 2126.2788 340.80762 7.0529664e-39
-1809.6484 2181.0544 347.97763 7.0529664e-39
-1840.5889 2233.6069 355.371 7.0529664e-39
-1850.071 2251.512 357.80841 7.0529664e-39
-1093.5619 2545.5071 340.17212 7.0529664e-39
-1077.4253 2557.4712 340.7467 7.0529664e-39
-2157.929 2906.7136 316.724 7.0529664e-39
-2237.9631 3080.2979 333.10925 7.0529664e-39
-2310.4885 3237.99 348.01291 7.0529664e-39
-2319.291 3267.7939 350.58398 7.0529664e-39
-1584.5739 3592.2888 343.50256 7.0529664e-39
-1638.1644 3635.7524 348.88446 7.0529664e-39
-1572.1097 3601.8435 343.82941 7.0529664e-39
-1638.1464 3658.6953 350.71469 7.0529664e-39
848.12622 -4458.7153 397.0816 7.0529664e-39
858.349 -4469.9468 398.2146 7.0529664e-39
793.2168 -4432.875 393.98752 7.0529664e-39
827.96625 -4444.5103 395.53455 7.0529664e-39
492.60071 -3075.4087 382.42599 7.0529664e-39
508.53143 -3066.2644 381.63385 7.0529664e-39
-3026.5105 -3037.0935 375.11829 7.0529664e-39
-2985.4087 -3018.9385 371.45779 7.0529664e-39
-2946.1851 -3002.5713 368.02963 7.0529664e-39
-2898.1511 -2981.2527 363.75903 7.0529664e-39
-2867.7102 -2969.6006 361.1734 7.0529664e-39
-1820.2119 -2673.9644 397.17221 7.0529664e-39
-1845.2539 -2621.6382 393.638 7.0529664e-39
-1836.4399 -2640.5107 394.91766 7.0529664e-39
-1867.6963 -2576.3325 390.7131 7.0529664e-39
177.6022 -2477.679 393.43271 7.0529664e-39
311.39789 -2475.3911 395.1535 7.0529664e-39
319.05804 -2492.3391 397.96924 7.0529664e-39
567.4306 -2489.0439 404.34402 7.0529664e-39
591.5564 -2477.3486 403.4054 7.0529664e-39
-1732.9924 -2436.3032 367.10092 7.0529664e-39
215.5916 -2464.2495 391.79016 7.0529664e-39
247.92912 -2445.5713 389.33408 7.0529664e-39
292.69879 -2445.0671 390.03021 7.0529664e-39
614.85034 -2465.8057 402.50589 7.0529664e-39
637.34375 -2462.6538 402.89694 7.0529664e-39
-1747.5945 -2426.3677 367.1517 7.0529664e-39
281.23889 -2414.8667 385.06342 7.0529664e-39
114.53055 -2345.9282 372.00116 7.0529664e-39
254.4549 -2353.7749 374.97339 7.0529664e-39
-1857.1115 -2311.0144 364.02374 7.0529664e-39
-1834.8998 -2302.0923 361.46445 7.0529664e-39
-541.34271 -2309.8398 375.75562 7.0529664e-39
-519.70929 -2298.5923 373.25262 7.0529664e-39
100.64973 -2319.8652 367.77744 7.0529664e-39
236.70038 -2313.9268 368.4032 7.0529664e-39
-506.5426 -2292.4387 371.8447 7.0529664e-39
-476.3483 -2280.7056 369.0289 7.0529664e-39
-428.77191 -2258.3232 364.07516 7.0529664e-39
-79.278572 -2281.1514 361.52002 7.0529664e-39
217.04175 -2274.6831 361.9111 7.0529664e-39
-399.32465 -2246.3418 361.36359 7.0529664e-39
1070.2688 -2226.8442 391.32086 7.0529664e-39
1101.8928 -2213.7883 391.66727 7.0529664e-39
-2258.1951 -2078.2183 376.81995 7.0529664e-39
-2271.6646 -2049.396 375.66223 7.0529664e-39
-2516.9734 -1985.6469 393.638 7.0529664e-39
-2300.0039 -1988.115 373.28583 7.0529664e-39
-2290.1975 -2008.4492 374.017 7.0529664e-39
-2521.6367 -1976.5052 393.3942 7.0529664e-39
-2311.1995 -1960.3436 372.11584 7.0529664e-39
-2343.04 -1893.2974 369.8735 7.0529664e-39
-2332.5757 -1913.9741 370.48279 7.0529664e-39
-2351.0679 -1884.9083 369.9953 7.0529664e-39
-2452.0723 -1800.5673 373.52951 7.0529664e-39
-2491.6089 -1769.2844 375.21829 7.0529664e-39
-2461.699 -1789.059 373.6514 7.0529664e-39
-2524.9512 -1730.828 375.87552 7.0529664e-39
-2504.8982 -1747.2152 374.99203 7.0529664e-39
-2536.5532 -1686.6042 374.017 7.0529664e-39
-2506.3086 -1669.3833 369.75159 7.0529664e-39
-2447.0293 -1672.0688 363.90186 7.0529664e-39
-2582.5918 -1633.4197 375.20526 7.0529664e-39
-2541.0918 -1641.0437 371.41718 7.0529664e-39
-2516.4937 -1651.5642 369.58911 7.0529664e-39
-2447.7529 -1661.3076 363.2316 7.0529664e-39
-1937.71 -1425.125 380.97006 7.0529664e-39
-1910.6832 -1426.9865 377.711 7.0529664e-39
-1884.7319 -1416.7758 373.44815 7.0529664e-39
-2989.731 -1144.0658 393.05304 7.0529664e-39
-2875.855 -1085.548 377.42941 7.0529664e-39
-2883.7908 -1057.0549 377.12469 7.0529664e-39
